ply
format ascii 1.0 
element vertex 1623
property float32 x
property float32 y
property float32 z
end_header
0.000107638 0.250832 0.0665985
0.000107636 0.411854 0.203808
0.000107635 0.521211 0.404116
0.000107633 0.561096 0.651115
0.000107632 0.518412 0.924033
0.00010763 0.385756 1.199
0.000107628 0.162071 1.4505
0.000107627 -0.14705 1.65299
0.000107625 -0.529465 1.78255
0.000107623 -0.966949 1.81842
0.000107622 -1.43605 1.74448
0.00010762 -1.90925 1.55049
0.000107618 -2.35644 1.23299
0.000107617 -2.74652 0.795932
0.000107615 -3.04922 0.250813
0.000107614 -3.23688 -0.383505
0.000107612 -3.28615 -1.08145
0.00010761 -3.17956 -1.81177
0.000107609 -2.90687 -2.5389
0.000107607 -2.46602 -3.22467
0.000107605 -1.86373 -3.83015
0.000107604 -1.11568 -4.31771
0.000107602 -0.246217 -4.65301
0.0001076 0.712423 -4.80702
0.000107599 1.72127 -4.75773
0.000107597 2.73622 -4.49173
0.000107595 3.70996 -4.00532
0.000107594 4.59409 -3.30523
0.000107592 5.34148 -2.40886
0.000107591 5.90859 -1.34402
0.000107589 6.25777 -0.148103
0.000107587 0.173603 0.030934
0.000107586 0.35 0.13831
0.000107584 0.483238 0.314079
0.000107582 0.553905 0.543957
0.000107581 0.546808 0.808848
0.000107579 0.452077 1.086
0.000107577 0.265958 1.3504
0.000107576 -0.00873453 1.57631
0.000107574 -0.362545 1.73895
0.000107573 -0.779697 1.81603
0.000107571 -1.23879 1.78937
0.000107569 -1.71383 1.64614
0.000107568 -2.17559 1.37997
0.000107566 -2.59319 0.991674
0.000107564 -2.93579 0.48962
0.000107563 -3.17442 -0.110339
0.000107561 -3.28374 -0.785318
0.000107559 -3.24366 -1.50628
0.000107558 -3.04079 -2.23926
0.000107556 -2.66958 -2.94696
0.000107555 -2.13305 -3.59053
0.000107553 -1.44315 -4.13154
0.000107551 -0.620699 -4.53405
0.00010755 0.305231 -4.76657
0.000107548 1.2983 -4.80399
0.000107546 2.31632 -4.62916
0.000107545 3.31307 -4.23422
0.000107543 4.24032 -3.6215
0.000107541 5.05013 -2.80397
0.00010754 5.69719 -1.80518
0.000107538 6.14111 -0.658674
0.000107537 0.0927482 0.00866476
0.000107535 0.280646 0.0847125
0.000107533 0.434391 0.233461
0.000107532 0.533197 0.4429
0.00010753 0.55997 0.695812
0.000107528 0.502509 0.970807
0.000107527 0.354441 1.24363
0.000107525 0.115818 1.48865
0.000107523 -0.20665 1.68049
0.000107522 -0.599754 1.79564
0.00010752 -1.04432 1.81402
0.000107519 -1.51613 1.72044
0.000107517 -1.98711 1.50572
0.000107515 -2.42686 1.16765
0.000107514 -2.80432 0.711405
0.000107512 -3.08952 0.149775
0.00010751 -3.2554 -0.4972
0.000107509 -3.2795 -1.20291
0.000107507 -3.14549 -1.93527
0.000107506 -2.84443 -2.65816
0.000107504 -2.37572 -3.33314
0.000107502 -1.74759 -3.92136
0.000107501 -0.977193 -4.3856
0.000107499 -0.0902762 -4.69228
0.000107497 0.879692 -4.81343
0.000107496 1.89276 -4.72839
0.000107494 2.90415 -4.42531
0.000107492 3.8662 -3.90221
0.000107491 4.73057 -3.16761
0.000107489 5.45056 -2.24069
0.000107488 5.98346 -1.15094
0.000107486 0.00996627 9.93348e-05
0.000107484 0.205355 0.0437628
0.000107483 0.375994 0.163404
0.000107481 0.49997 0.349413
0.000107479 0.55849 0.58663
0.000107478 0.53719 0.855254
0.000107476 0.427179 1.13205
0.000107474 0.225788 1.39177
0.000107473 -0.063047 1.60873
0.000107471 -0.428775 1.75845
0.00010747 -0.854615 1.81923
0.000107468 -1.31831 1.7737
0.000107466 -1.79323 1.61005
0.000107465 -2.24975 1.32308
0.000107463 -2.65686 0.914871
0.000107461 -2.98393 0.395047
0.00010746 -3.20247 -0.219308
0.000107458 -3.2879 -0.904201
0.000107457 -3.22119 -1.62967
0.000107455 -2.99018 -2.36108
0.000107453 -2.59071 -3.06073
0.000107452 -2.02731 -3.68969
0.00010745 -1.31344 -4.20983
0.000107448 -0.471338 -4.58581
0.000107447 0.468601 -4.78709
0.000107445 1.46895 -4.78978
0.000107443 2.48671 -4.57821
0.000107442 3.47516 -4.1462
0.00010744 4.38598 -3.49785
0.000107439 5.17149 -2.64791
0.000107437 5.78704 -1.62168
0.000107435 6.19333 -0.454279
0.000107434 0.125764 0.0160305
0.000107432 0.309488 0.104896
0.00010743 0.455366 0.264841
0.000107429 0.543136 0.482923
0.000107427 0.55645 0.741139
0.000107425 0.48403 1.01752
0.000107424 0.320551 1.28748
0.000107422 0.0671794 1.5253
0.000107421 -0.268261 1.70582
0.000107419 -0.67151 1.80598
0.000107417 -1.12247 1.80645
0.000107416 -1.59619 1.69296
0.000107414 -2.06408 1.45746
0.000107412 -2.49553 1.09894
0.000107411 -2.85951 0.623881
0.000107409 -3.12644 0.0463097
0.000107408 -3.2699 -0.612567
0.000107406 -3.26837 -1.32513
0.000107404 -3.10667 -2.05851
0.000107403 -2.77724 -2.77607
0.000107401 -2.2809 -3.43916
0.000107399 -1.6274 -4.00907
0.000107398 -0.835389 -4.44903
0.000107396 0.0680278 -4.72629
0.000107394 1.04819 -4.81399
0.000107393 2.06422 -4.69286
0.000107391 3.07069 -4.35264
0.00010739 4.01968 -3.79309
0.000107388 4.86295 -3.02452
0.000107386 5.55433 -2.06789
0.000107385 6.052 -0.95435
0.000107383 0.0435547 0.00190002
0.000107381 0.236404 0.058754
0.00010738 0.400662 0.190387
0.000107378 0.51484 0.386207
0.000107377 0.560806 0.630199
0.000107375 0.52505 0.901896
0.000107373 0.399683 1.17762
0.000107372 0.183131 1.43193
0.00010737 -0.119548 1.63924
0.000107368 -0.496718 1.77542
0.000107367 -0.930614 1.81941
0.000107365 -1.39816 1.75467
0.000107364 -1.87212 1.57046
0.000107362 -2.32251 1.26276
0.00010736 -2.71827 0.834896
0.000107359 -3.02899 0.297785
0.000107357 -3.22674 -0.330285
0.000107355 -3.28775 -1.02424
0.000107354 -3.19405 -1.75324
0.000107352 -2.93478 -2.482
0.00010735 -2.50719 -3.17249
0.000107349 -1.9173 -3.78577
0.000107347 -1.18008 -4.28404
0.000107346 -0.319194 -4.63261
0.000107344 0.633693 -4.80196
0.000107342 1.6401 -4.76948
0.000107341 2.65627 -4.52101
0.000107339 3.63506 -4.05204
0.000107337 4.52809 -3.36847
0.000107336 5.28803 -2.48685
0.000107334 5.87096 -1.43417
0.000107333 6.2387 -0.247114
0.000107331 0.158351 0.0256214
0.000107329 0.337255 0.127102
0.000107328 0.474689 0.297878
0.000107326 0.550958 0.52409
0.000107324 0.550492 0.786987
0.000107323 0.462961 1.06406
0.000107321 0.284104 1.33041
0.00010732 0.0162053 1.56033
0.000107318 -0.331803 1.72886
0.000107316 -0.744626 1.81349
0.000107315 -1.20128 1.79564
0.000107313 -1.67609 1.66201
0.000107311 -2.14003 1.4057
0.00010731 -2.56228 1.02692
0.000107308 -2.91195 0.533443
0.000107306 -3.15985 -0.0594697
0.000107305 -3.28028 -0.729465
0.000107303 -3.25269 -1.44795
0.000107302 -3.0631 -2.18131
0.0001073 -2.7053 -2.89244
0.000107298 -2.18161 -3.54254
0.000107297 -1.50327 -4.09309
0.000107295 -0.690418 -4.50785
0.000107293 0.228516 -4.75492
0.000107292 1.21772 -4.80862
0.00010729 2.2354 -4.65111
0.000107289 3.2356 -4.27375
0.000107287 4.17016 -3.67803
0.000107285 4.99103 -2.87609
0.000107284 5.65261 -1.89064
0.000107282 6.11404 -0.754442
0.00010728 0.0769954 0.00595786
0.000107279 0.266641 0.0758734
0.000107277 0.423906 0.219198
0.000107276 0.527772 0.424372
0.000107274 0.560799 0.674559
0.000107272 0.510361 0.948655
0.000107271 0.369593 1.22258
0.000107269 0.138024 1.47076
0.000107267 -0.178169 1.66774
0.000107266 -0.566277 1.78978
0.000107264 -1.00757 1.8165
0.000107263 -1.4782 1.73225
0.000107261 -1.95034 1.52736
0.000107259 -2.39372 1.19901
0.000107258 -2.77727 0.751814
0.000107256 -3.07085 0.197935
0.000107254 -3.24713 -0.443138
0.000107253 -3.2832 -1.14528
0.000107251 -3.16221 -1.8768
0.00010725 -2.8746 -2.60184
0.000107248 -2.41905 -3.28206
0.000107246 -1.8031 -3.87859
0.000107245 -1.0432 -4.354
0.000107243 -0.164433 -4.67433
0.000107241 0.800309 -4.81112
0.00010724 1.81154 -4.74305
0.000107238 2.82478 -4.45755
0.000107237 3.79254 -3.95179
0.000107235 4.66643 -3.23347
0.000107233 5.39955 -2.32092
0.000107232 5.94878 -1.24283
0.00010723 6.27711 -0.0374106
0.000107228 0.190399 0.0374158
0.000107227 0.363843 0.151281
0.000107225 0.492273 0.332492
0.000107223 0.556598 0.566302
0.000107222 0.542058 0.83324
0.00010722 0.439295 1.11029
0.000107219 0.245124 1.37232
0.000107217 -0.0370484 1.59361
0.000107215 -0.39719 1.74952
0.000107214 -0.818993 1.81809
0.000107212 -1.2806 1.78154
0.00010721 -1.75568 1.62758
0.000107209 -2.21479 1.35045
0.000107207 -2.62698 0.951643
0.000107206 -2.96151 0.440177
0.000107204 -3.18965 -0.167443
0.000107202 -3.28646 -0.847745
0.000107201 -3.23241 -1.5712
0.000107199 -3.01475 -2.30349
0.000107197 -2.62865 -3.00709
0.000107196 -2.07792 -3.6431
0.000107194 -1.37533 -4.17326
0.000107193 -0.542431 -4.5619
0.000107191 0.391005 -4.77807
0.000107189 1.38805 -4.79726
0.000107188 2.4061 -4.60312
0.000107186 3.39866 -4.18865
0.000107184 4.31742 -3.55712
0.000107183 5.1146 -2.72245
0.000107181 5.74522 -1.7091
0.00010718 6.16944 -0.551437
0.000107178 0.110174 0.0122637
0.000107176 0.295956 0.095082
0.000107175 0.445632 0.249769
0.000107173 0.538689 0.46382
0.000107171 0.558418 0.719601
0.00010717 0.493104 0.995413
0.000107168 0.336921 1.26682
0.000107167 0.0905085 1.50814
0.000107165 -0.238837 1.6941
0.000107163 -0.637351 1.80143
0.000107162 -1.08537 1.81043
0.00010716 -1.55828 1.7064
0.000107158 -2.02775 1.48075
0.000107157 -2.46324 1.13189
0.000107155 -2.83371 0.6657
0.000107154 -3.10939 0.0956056
0.000107152 -3.26354 -0.557731
0.00010715 -3.2742 -1.26716
0.000107149 -3.12565 -2.00019
0.000107147 -2.80965 -2.72041
0.000107146 -2.32637 -3.38927
0.000107144 -1.68482 -3.96798
0.000107142 -0.902949 -4.41956
0.000107141 -0.00722672 -4.71085
0.000107139 0.968252 -4.81446
0.000107137 1.98304 -4.71046
0.000107136 2.99201 -4.38783
0.000107134 3.94735 -3.84551
0.000107133 4.80078 -3.09296
0.000107131 5.50586 -2.15029
0.000107129 6.02034 -1.04788
0.000107128 0.027659 0.00076551
0.000107126 0.221795 0.0513868
0.000107124 0.389151 0.177377
0.000107123 0.508035 0.368605
0.000107121 0.559996 0.60946
0.00010712 0.531115 0.879785
0.000107118 0.413029 1.15611
0.000107116 0.203641 1.41307
0.000107115 -0.092521 1.62504
0.000107113 -0.464333 1.7677
0.000107111 -0.894495 1.8197
0.00010711 -1.36031 1.7641
0.000107108 -1.83483 1.58965
0.000107107 -2.28823 1.29176
0.000107105 -2.68948 0.873163
0.000107103 -3.00804 0.344176
0.000107102 -3.21572 -0.277485
0.0001071 -3.28836 -0.967257
0.000107098 -3.20749 -1.69471
0.000107097 -2.96161 -2.42485
0.000107095 -2.54732 -3.11982
0.000107094 -1.96993 -3.74067
0.000107092 -1.24368 -4.24941
0.00010709 -0.391584 -4.61107
0.000107089 0.555305 -4.79563
0.000107087 1.559 -4.77985
0.000107085 2.57609 -4.54888
0.000107084 3.55962 -4.0974
0.000107082 4.46124 -3.43045
0.000107081 5.23345 -2.56374
0.000107079 5.83197 -1.52346
0.000107077 6.21808 -0.345556
0.000107076 0.142979 0.0208032
0.000107074 0.324246 0.116336
0.000107072 0.465749 0.28203
0.000107071 0.547522 0.504457
0.000107069 0.55362 0.765216
0.000107068 0.473262 1.04205
0.000107066 0.301682 1.3102
0.000107064 0.0406338 1.54395
0.000107063 -0.301475 1.71824
0.000107061 -0.709837 1.81029
0.00010706 -1.16388 1.80116
0.000107058 -1.63827 1.6771
0.000107056 -2.1042 1.43065
0.000107055 -2.53092 1.06144
0.000107053 -2.88747 0.576632
0.000107051 -3.14447 -0.00909275
0.00010705 -3.27588 -0.673922
0.000107048 -3.26068 -1.38972
0.000107047 -3.08433 -2.12322
0.000107045 -2.73995 -2.83753
0.000107043 -2.22918 -3.49392
0.000107042 -1.56254 -4.05376
0.00010704 -0.75946 -4.48058
0.000107038 0.15225 -4.74204
0.000107037 1.13732 -4.81191
0.000107035 2.15438 -4.67166
0.000107034 3.15772 -4.31188
0.000107032 4.09928 -3.73326
0.00010703 4.93093 -2.94704
0.000107029 5.60676 -1.97513
0.000107027 6.08548 -0.849516
0.000107026 0.0611839 0.00375521
0.000107024 0.252429 0.0675029
0.000107022 0.413082 0.20533
0.000107021 0.521894 0.406132
0.000107019 0.561095 0.653458
0.000107017 0.517636 0.926503
0.000107016 0.384166 1.20137
0.000107014 0.159689 1.45255
0.000107013 -0.150147 1.6545
0.000107011 -0.533139 1.78331
0.000107009 -0.971015 1.81826
0.000107008 -1.44028 1.74329
0.000107006 -1.91338 1.54821
0.000107004 -2.3602 1.22963
0.000107003 -2.74963 0.791544
0.000107001 -3.05144 0.245539
0.000107 -3.23796 -0.389466
0.000106998 -3.28591 -1.08784
0.000106996 -3.17788 -1.81829
0.000106995 -2.90369 -2.54523
0.000106993 -2.46137 -3.23045
0.000106991 -1.8577 -3.83505
0.00010699 -1.10845 -4.3214
0.000106988 -0.238042 -4.65522
0.000106987 0.721224 -4.8075
0.000106985 1.73033 -4.75634
0.000106983 2.74512 -4.48838
0.000106982 3.71828 -4.00003
0.00010698 4.6014 -3.2981
0.000106979 5.34737 -2.4001
0.000106977 5.9127 -1.33391
0.000106975 6.2598 -0.137026
0.000106974 0.175296 0.031557
0.000106972 0.351405 0.139588
0.00010697 0.484167 0.315907
0.000106969 0.554203 0.546187
0.000106967 0.546363 0.811292
0.000106966 0.450827 1.08844
0.000106964 0.263899 1.35261
0.000106962 -0.0115475 1.57807
0.000106961 -0.365999 1.74004
0.000106959 -0.783625 1.81628
0.000106958 -1.24298 1.78863
0.000106956 -1.71803 1.64432
0.000106954 -2.17954 1.37705
0.000106953 -2.59661 0.987697
0.000106951 -2.93841 0.484693
0.000106949 -3.17599 -0.116042
0.000106948 -3.28406 -0.791566
0.000106946 -3.24259 -1.51279
0.000106945 -3.03824 -2.24572
0.000106943 -2.66553 -2.95302
0.000106941 -2.12757 -3.59584
0.00010694 -1.43639 -4.13578
0.000106938 -0.612882 -4.5369
0.000106936 0.313814 -4.7678
0.000106935 1.3073 -4.80339
0.000106933 2.32534 -4.62663
0.000106932 3.32168 -4.22972
0.00010693 4.2481 -3.61511
0.000106928 5.05666 -2.79586
0.000106927 5.70208 -1.7956
0.000106925 6.14404 -0.647951
0.000106924 0.094501 0.00899787
0.000106922 0.282194 0.0857272
0.00010692 0.435538 0.235075
0.000106919 0.533774 0.444984
0.000106917 0.559845 0.698191
0.000106915 0.501598 0.973277
0.000106914 0.352715 1.24597
0.000106912 0.113308 1.49063
0.000106911 -0.209855 1.68189
0.000106909 -0.603508 1.79625
0.000106907 -1.04843 1.8137
0.000106906 -1.52036 1.71907
0.000106904 -1.9912 1.50326
0.000106903 -2.43054 1.1641
0.000106901 -2.80731 0.706856
0.000106899 -3.09156 0.14437
0.000106898 -3.25627 -0.503253
0.000106896 -3.27902 -1.20935
0.000106894 -3.14356 -1.94179
0.000106893 -2.841 -2.66443
0.000106891 -2.37083 -3.33881
0.00010689 -1.74134 -3.92609
0.000106888 -0.969784 -4.38907
0.000106886 -0.0819721 -4.69421
0.000106885 0.888563 -4.8136
0.000106883 1.90182 -4.72667
0.000106882 2.91299 -4.42163
0.00010688 3.87438 -3.89659
0.000106878 4.73766 -3.16018
0.000106877 5.45617 -2.23168
0.000106875 5.98724 -1.14065
0.000106873 0.0117423 0.000137897
0.000106872 0.207014 0.0445009
0.00010687 0.377331 0.164783
0.000106869 0.500802 0.351321
0.000106867 0.55867 0.58891
0.000106865 0.536612 0.857713
0.000106864 0.425792 1.13447
0.000106862 0.223597 1.39392
0.000106861 -0.0659772 1.61039
0.000106859 -0.432322 1.75941
0.000106857 -0.858604 1.81932
0.000106856 -1.32252 1.77278
0.000106854 -1.79741 1.60805
0.000106852 -2.25363 1.31998
0.000106851 -2.66017 0.910726
0.000106849 -2.98639 0.389976
0.000106848 -3.20384 -0.22512
0.000106846 -3.288 -0.910514
0.000106844 -3.21987 -1.63619
0.000106843 -2.98737 -2.36749
0.000106841 -2.58642 -3.06668
0.00010684 -2.0216 -3.69485
0.000106838 -1.30648 -4.21386
0.000106836 -0.46337 -4.58841
0.000106835 0.47728 -4.78801
0.000106833 1.47798 -4.78886
0.000106831 2.49569 -4.57535
0.00010683 3.48367 -4.14138
0.000106828 4.39358 -3.49115
0.000106827 5.17776 -2.63953
0.000106825 5.79162 -1.61188
0.000106823 6.1959 -0.443403
0.000106822 0.127497 0.0164816
0.00010682 0.310983 0.106018
0.000106819 0.456428 0.266546
0.000106817 0.543603 0.48507
0.000106815 0.556196 0.743549
0.000106814 0.482982 1.01999
0.000106812 0.31869 1.28977
0.00010681 0.0645449 1.52719
0.000106809 -0.27157 1.70709
0.000106807 -0.675339 1.80645
0.000106806 -1.12662 1.80596
0.000106804 -1.60041 1.69141
0.000106802 -2.06812 1.45481
0.000106801 -2.4991 1.09522
0.000106799 -2.86235 0.619177
0.000106798 -3.12829 0.0407792
0.000106796 -3.27055 -0.618705
0.000106794 -3.26765 -1.33161
0.000106793 -3.10449 -2.06501
0.000106791 -2.77355 -2.78226
0.00010679 -2.27576 -3.44469
0.000106788 -1.62094 -4.0136
0.000106786 -0.827809 -4.45225
0.000106785 0.0764517 -4.72794
0.000106783 1.05712 -4.81385
0.000106781 2.07327 -4.69081
0.00010678 3.07944 -4.34863
0.000106778 4.0277 -3.78716
0.000106777 4.86983 -3.01681
0.000106775 5.55966 -2.05864
0.000106773 6.05544 -0.943872
0.000106772 0.0453258 0.00205795
0.00010677 0.238023 0.0596053
0.000106769 0.401927 0.191864
0.000106767 0.515572 0.388189
0.000106765 0.560865 0.632523
0.000106764 0.524338 0.904364
0.000106762 0.398159 1.18001
0.00010676 0.180809 1.43402
0.000106759 -0.122592 1.6408
0.000106757 -0.500352 1.77625
0.000106756 -0.934656 1.81933
0.000106754 -1.40238 1.75357
0.000106752 -1.87627 1.56827
0.000106751 -2.32631 1.25948
0.000106749 -2.72145 0.830584
0.000106748 -3.03129 0.292574
0.000106746 -3.22791 -0.3362
0.000106744 -3.28762 -1.03061
0.000106743 -3.19249 -1.75976
0.000106741 -2.93172 -2.48836
0.00010674 -2.50265 -3.17833
0.000106738 -1.91137 -3.79076
0.000106736 -1.17293 -4.28784
0.000106735 -0.311084 -4.63494
0.000106733 0.642457 -4.80259
0.000106731 1.64915 -4.76824
0.00010673 2.6652 -4.51781
0.000106728 3.64344 -4.0469
0.000106727 4.53549 -3.36148
0.000106725 5.29404 -2.4782
0.000106723 5.87523 -1.42415
0.000106722 6.24091 -0.236099
0.00010672 0.160059 0.0261895
0.000106719 0.33869 0.12833
0.000106717 0.475662 0.299667
0.000106715 0.551311 0.526294
0.000106714 0.550108 0.789421
0.000106712 0.461776 1.06651
0.000106711 0.282108 1.33265
0.000106709 0.013449 1.56213
0.000106707 -0.335211 1.73001
0.000106706 -0.748524 1.81381
0.000106704 -1.20545 1.79497
0.000106703 -1.6803 1.66028
0.000106701 -2.14401 1.40287
0.000106699 -2.56575 1.02303
0.000106698 -2.91464 0.528586
0.000106696 -3.16152 -0.0651191
0.000106694 -3.28071 -0.735679
0.000106693 -3.25173 -1.45445
0.000106691 -3.06066 -2.18778
0.00010669 -2.70137 -2.89854
0.000106688 -2.17624 -3.54793
0.000106686 -1.49661 -4.09742
0.000106685 -0.682675 -4.51082
0.000106683 0.23705 -4.75628
0.000106682 1.22669 -4.80817
0.00010668 2.24444 -4.64873
0.000106678 3.24426 -4.26941
0.000106677 4.17802 -3.67179
0.000106675 4.99768 -2.86811
0.000106674 5.65764 -1.88115
0.000106672 6.11713 -0.743795
0.00010667 0.0787554 0.0062348
0.000106669 0.268213 0.0768361
0.000106667 0.425093 0.220769
0.000106665 0.528399 0.426424
0.000106664 0.560733 0.676922
0.000106662 0.509514 0.951126
0.000106661 0.367932 1.22494
0.000106659 0.135574 1.47278
0.000106657 -0.181323 1.66918
0.000106656 -0.569994 1.79046
0.000106654 -1.01166 1.81626
0.000106653 -1.48243 1.73097
0.000106651 -1.95445 1.52499
0.000106649 -2.39744 1.19555
0.000106648 -2.78031 0.747341
0.000106646 -3.07297 0.192591
0.000106645 -3.24809 -0.449148
0.000106643 -3.28284 -1.1517
0.000106641 -3.1604 -1.88333
0.00010664 -2.87129 -2.60813
0.000106638 -2.41427 -3.28779
0.000106637 -1.79695 -3.8834
0.000106635 -1.03588 -4.35757
0.000106633 -0.156189 -4.67639
0.000106632 0.809149 -4.81144
0.00010663 1.8206 -4.74149
0.000106628 2.83365 -4.45402
0.000106627 3.80078 -3.94633
0.000106625 4.67363 -3.22619
0.000106624 5.40529 -2.31202
0.000106622 5.95272 -1.23262
0.00010662 6.27895 -0.0262679
0.000106619 0.192074 0.0380995
0.000106617 0.365213 0.152612
0.000106616 0.493152 0.334363
0.000106614 0.556834 0.568559
0.000106612 0.541543 0.835693
0.000106611 0.437972 1.11273
0.000106609 0.242995 1.3745
0.000106608 -0.0399235 1.59532
0.000106606 -0.400693 1.75054
0.000106604 -0.822953 1.81825
0.000106603 -1.2848 1.7807
0.000106601 -1.75987 1.62566
0.0001066 -2.21871 1.34744
0.000106598 -2.63034 0.947578
0.000106596 -2.96404 0.435173
0.000106595 -3.19112 -0.173205
0.000106593 -3.28667 -0.854029
0.000106592 -3.23121 -1.57772
0.00010659 -3.01206 -2.30992
0.000106588 -2.62447 -3.01309
0.000106587 -2.07233 -3.64833
0.000106585 -1.36847 -4.17738
0.000106583 -0.534533 -4.56463
0.000106582 0.399639 -4.77914
0.00010658 1.39707 -4.7965
0.000106579 2.4151 -4.60041
0.000106577 3.40721 -4.18399
0.000106575 4.32511 -3.55058
0.000106574 5.121 -2.7142
0.000106572 5.74995 -1.69939
0.000106571 6.17218 -0.540632
0.000106569 0.111918 0.012659
0.000106567 0.297477 0.0961539
0.000106566 0.446736 0.251431
0.000106564 0.539208 0.465938
0.000106563 0.558226 0.721997
0.000106561 0.49212 0.997881
0.000106559 0.335124 1.26913
0.000106558 0.0879327 1.51007
0.000106556 -0.242097 1.69543
0.000106555 -0.641145 1.80197
0.000106553 -1.0895 1.81003
0.000106551 -1.56251 1.70494
0.00010655 -2.03181 1.47819
0.000106548 -2.46686 1.12826
0.000106547 -2.83662 0.661069
0.000106545 -3.11133 0.0901336
0.000106543 -3.2643 -0.563829
0.000106542 -3.2736 -1.27362
0.00010654 -3.12359 -2.0067
0.000106539 -2.80609 -2.72664
0.000106537 -2.32134 -3.39486
0.000106535 -1.67846 -3.9726
0.000106534 -0.89545 -4.4229
0.000106532 0.00114166 -4.71263
0.00010653 0.977156 -4.81447
0.000106529 1.99209 -4.70856
0.000106527 3.0008 -4.38398
0.000106526 3.95545 -3.83973
0.000106524 4.80776 -3.08538
0.000106522 5.51132 -2.14115
0.000106521 6.02394 -1.03749
0.000106519 0.0294332 0.000866937
0.000106518 0.223433 0.0521847
0.000106516 0.390451 0.178807
0.000106514 0.508815 0.370553
0.000106513 0.560112 0.611764
0.000106511 0.530467 0.882249
0.00010651 0.411569 1.15851
0.000106508 0.201381 1.41519
0.000106506 -0.0955116 1.62664
0.000106505 -0.467927 1.76859
0.000106503 -0.898512 1.81971
0.000106502 -1.36453 1.76309
0.0001065 -1.839 1.58755
0.000106498 -2.29207 1.28856
0.000106497 -2.69272 0.868929
0.000106495 -3.01042 0.339031
0.000106494 -3.21699 -0.283353
0.000106492 -3.28834 -0.973601
0.00010649 -3.20604 -1.70123
0.000106489 -2.95867 -2.43124
0.000106487 -2.5429 -3.12572
0.000106486 -1.9641 -3.74573
0.000106484 -1.23663 -4.25332
0.000106482 -0.38354 -4.61353
0.000106481 0.56403 -4.7964
0.000106479 1.56804 -4.77876
0.000106478 2.58504 -4.54584
0.000106476 3.56806 -4.09241
0.000106474 4.46874 -3.4236
0.000106473 5.23959 -2.55522
0.000106471 5.83639 -1.51354
0.00010647 6.22045 -0.334605
0.000106468 0.144699 0.021316
0.000106466 0.325709 0.117515
0.000106465 0.466765 0.28378
0.000106463 0.547929 0.506635
0.000106462 0.553298 0.767639
0.00010646 0.472142 1.04451
0.000106458 0.29975 1.31247
0.000106457 0.0379348 1.5458
0.000106455 -0.304837 1.71945
0.000106454 -0.713703 1.81068
0.000106452 -1.16805 1.80058
0.00010645 -1.64249 1.67546
0.000106449 -2.10821 1.4279
0.000106447 -2.53444 1.05763
0.000106445 -2.89023 0.571846
0.000106444 -3.14623 -0.0146866
0.000106442 -3.27642 -0.680101
0.000106441 -3.25984 -1.39621
0.000106439 -3.08201 -2.12971
0.000106437 -2.73614 -2.84368
0.000106436 -2.22392 -3.49938
0.000106434 -1.55597 -4.05819
0.000106433 -0.751794 -4.48367
0.000106431 0.160733 -4.74354
0.000106429 1.14627 -4.81161
0.000106428 2.16342 -4.66943
0.000106426 3.16642 -4.3077
0.000106425 4.10722 -3.72716
0.000106423 4.93768 -2.93919
0.000106421 5.61194 -1.96575
0.00010642 6.08873 -0.838948
0.000106418 0.0629499 0.00397586
0.000106417 0.254024 0.0684131
0.000106415 0.414306 0.206857
0.000106413 0.522572 0.408152
0.000106412 0.561089 0.655804
0.00010641 0.516853 0.928973
0.000106409 0.38257 1.20374
0.000106407 0.157299 1.45459
0.000106405 -0.153249 1.656
0.000106404 -0.536818 1.78406
0.000106402 -0.975083 1.8181
0.000106401 -1.44451 1.7421
0.000106399 -1.91751 1.54592
0.000106397 -2.36395 1.22625
0.000106396 -2.75274 0.787147
0.000106394 -3.05364 0.240257
0.000106393 -3.23903 -0.395433
0.000106391 -3.28565 -1.09424
0.000106389 -3.17618 -1.82482
0.000106388 -2.9005 -2.55156
0.000106386 -2.4567 -3.23624
0.000106385 -1.85166 -3.83995
0.000106383 -1.10121 -4.32509
0.000106381 -0.22986 -4.65741
0.00010638 0.730029 -4.80797
0.000106378 1.73938 -4.75492
0.000106377 2.75402 -4.48501
0.000106375 3.72659 -3.99471
0.000106373 4.60869 -3.29095
0.000106372 5.35325 -2.39132
0.00010637 5.91679 -1.32379
0.000106369 6.26181 -0.125942
0.000106367 0.176987 0.0321862
0.000106365 0.352806 0.14087
0.000106364 0.485091 0.31774
0.000106362 0.554495 0.54842
0.000106361 0.54591 0.813736
0.000106359 0.449569 1.09088
0.000106357 0.261833 1.35482
0.000106356 -0.0143668 1.57982
0.000106354 -0.369458 1.74112
0.000106353 -0.787557 1.81651
0.000106351 -1.24717 1.78787
0.000106349 -1.72224 1.64249
0.000106348 -2.18349 1.37412
0.000106346 -2.60002 0.983712
0.000106345 -2.94102 0.479759
0.000106343 -3.17756 -0.121752
0.000106341 -3.28438 -0.797818
0.00010634 -3.2415 -1.5193
0.000106338 -3.03567 -2.25217
0.000106337 -2.66147 -2.95907
0.000106335 -2.12208 -3.60115
0.000106333 -1.42962 -4.14
0.000106332 -0.605057 -4.53975
0.00010633 0.322403 -4.769
0.000106329 1.3163 -4.80278
0.000106327 2.33435 -4.62407
0.000106325 3.33029 -4.22521
0.000106324 4.25587 -3.60871
0.000106322 5.06317 -2.78773
0.000106321 5.70695 -1.78599
0.000106319 6.14695 -0.637219
0.000106317 0.0962529 0.00933723
0.000106316 0.28374 0.0867477
0.000106314 0.436682 0.236695
0.000106313 0.534345 0.447071
0.000106311 0.559712 0.700572
0.000106309 0.500679 0.975747
0.000106308 0.350982 1.2483
0.000106306 0.110792 1.4926
0.000106305 -0.213065 1.68327
0.000106303 -0.607267 1.79686
0.000106301 -1.05254 1.81337
0.0001063 -1.52459 1.7177
0.000106298 -1.99528 1.50079
0.000106297 -2.4342 1.16055
0.000106295 -2.81028 0.702299
0.000106293 -3.09359 0.138958
0.000106292 -3.25713 -0.509311
0.00010629 -3.27854 -1.21579
0.000106289 -3.14161 -1.94831
0.000106287 -2.83756 -2.67069
0.000106285 -2.36592 -3.34446
0.000106284 -1.73508 -3.9308
0.000106282 -0.962366 -4.39252
0.000106281 -0.0736614 -4.69613
0.000106279 0.897438 -4.81376
0.000106278 1.91088 -4.72493
0.000106276 2.92181 -4.41793
0.000106274 3.88255 -3.89096
0.000106273 4.74475 -3.15275
0.000106271 5.46177 -2.22265
0.00010627 5.99101 -1.13034
0.000106268 0.0135182 0.000182768
0.000106266 0.208671 0.0452449
0.000106265 0.378665 0.166166
0.000106263 0.50163 0.353233
0.000106262 0.558843 0.591192
0.00010626 0.536027 0.860172
0.000106258 0.424397 1.13689
0.000106257 0.221399 1.39607
0.000106255 -0.0689135 1.61205
0.000106254 -0.435874 1.76036
0.000106252 -0.862595 1.81939
0.00010625 -1.32673 1.77185
0.000106249 -1.80159 1.60603
0.000106247 -2.2575 1.31687
0.000106246 -2.66346 0.906571
0.000106244 -2.98884 0.384897
0.000106242 -3.20521 -0.230939
0.000106241 -3.28809 -0.91683
0.000106239 -3.21854 -1.64272
0.000106238 -2.98455 -2.3739
0.000106236 -2.58211 -3.07263
0.000106234 -2.01589 -3.69999
0.000106233 -1.29952 -4.21787
0.000106231 -0.455394 -4.59099
0.00010623 0.485964 -4.78893
0.000106228 1.48701 -4.78792
0.000106226 2.50466 -4.57247
0.000106225 3.49216 -4.13654
0.000106223 4.40116 -3.48445
0.000106222 5.18403 -2.63113
0.00010622 5.79619 -1.60206
0.000106218 6.19845 -0.43252
0.000106217 0.129229 0.0169389
0.000106215 0.312474 0.107147
0.000106214 0.457486 0.268254
0.000106212 0.544064 0.487219
0.00010621 0.555936 0.74596
0.000106209 0.481927 1.02245
0.000106207 0.316821 1.29206
0.000106206 0.0619039 1.52908
0.000106204 -0.274884 1.70836
0.000106202 -0.679172 1.80691
0.000106201 -1.13077 1.80546
0.000106199 -1.60464 1.68985
0.000106198 -2.07216 1.45216
0.000106196 -2.50267 1.09149
0.000106195 -2.86519 0.614464
0.000106193 -3.13014 0.0352423
0.000106191 -3.27119 -0.624847
0.00010619 -3.26692 -1.33808
0.000106188 -3.1023 -2.07151
0.000106187 -2.76986 -2.78844
0.000106185 -2.27062 -3.45021
0.000106183 -1.61447 -4.01812
0.000106182 -0.820221 -4.45546
0.00010618 0.0848818 -4.72957
0.000106179 1.06606 -4.8137
0.000106177 2.08232 -4.68874
0.000106175 3.08819 -4.3446
0.000106174 4.03572 -3.78121
0.000106172 4.87669 -3.00909
0.000106171 5.56497 -2.04937
0.000106169 6.05886 -0.933385
0.000106167 0.0470964 0.00222218
0.000106166 0.239639 0.0604626
0.000106164 0.403187 0.193346
0.000106163 0.516299 0.390175
0.000106161 0.560916 0.63485
0.000106159 0.523619 0.906832
0.000106158 0.396627 1.1824
0.000106156 0.178481 1.4361
0.000106155 -0.125642 1.64235
0.000106153 -0.503991 1.77706
0.000106151 -0.938701 1.81925
0.00010615 -1.40661 1.75246
0.000106148 -1.88041 1.56607
0.000106147 -2.33011 1.25618
0.000106145 -2.72462 0.826265
0.000106144 -3.03357 0.287357
0.000106142 -3.22908 -0.34212
0.00010614 -3.28748 -1.03698
0.000106139 -3.19091 -1.76629
0.000106137 -2.92865 -2.49471
0.000106136 -2.4981 -3.18417
0.000106134 -1.90543 -3.79574
0.000106132 -1.16578 -4.29163
0.000106131 -0.302966 -4.63726
0.000106129 0.651226 -4.8032
0.000106128 1.6582 -4.76698
0.000106126 2.67413 -4.5146
0.000106124 3.65182 -4.04174
0.000106123 4.54289 -3.35447
0.000106121 5.30005 -2.46954
0.00010612 5.87948 -1.41413
0.000106118 6.24309 -0.225077
0.000106116 0.161764 0.0267637
0.000106115 0.340121 0.129564
0.000106113 0.47663 0.301461
0.000106112 0.551658 0.528501
0.00010611 0.549718 0.791856
0.000106108 0.460583 1.06896
0.000106107 0.280105 1.33489
0.000106105 0.0106863 1.56393
0.000106104 -0.338625 1.73116
0.000106102 -0.752425 1.81411
0.000106101 -1.20963 1.7943
0.000106099 -1.68451 1.65854
0.000106097 -2.14798 1.40002
0.000106096 -2.56922 1.01912
0.000106094 -2.91733 0.523722
0.000106093 -3.16317 -0.0707745
0.000106091 -3.28113 -0.741898
0.000106089 -3.25076 -1.46095
0.000106088 -3.05822 -2.19425
0.000106086 -2.69742 -2.90464
0.000106085 -2.17086 -3.5533
0.000106083 -1.48994 -4.10174
0.000106081 -0.674924 -4.51378
0.00010608 0.24559 -4.75763
0.000106078 1.23568 -4.80771
0.000106077 2.25346 -4.64633
0.000106075 3.25292 -4.26505
0.000106073 4.18587 -3.66554
0.000106072 5.00431 -2.86011
0.00010607 5.66266 -1.87166
0.000106069 6.12021 -0.733139
0.000106067 0.0805148 0.00651802
0.000106065 0.269783 0.0778046
0.000106064 0.426275 0.222345
0.000106062 0.529021 0.42848
0.000106061 0.56066 0.679286
0.000106059 0.50866 0.953597
0.000106058 0.366264 1.22729
0.000106056 0.133117 1.47478
0.000106054 -0.184483 1.67062
0.000106053 -0.573715 1.79114
0.000106051 -1.01576 1.81601
0.00010605 -1.48666 1.72968
0.000106048 -1.95856 1.5226
0.000106046 -2.40115 1.19208
0.000106045 -2.78335 0.742859
0.000106043 -3.07508 0.18724
0.000106042 -3.24905 -0.455164
0.00010604 -3.28246 -1.15812
0.000106038 -3.15858 -1.88985
0.000106037 -2.86796 -2.61443
0.000106035 -2.40948 -3.2935
0.000106034 -1.7908 -3.8882
0.000106032 -1.02854 -4.36113
0.000106031 -0.147939 -4.67844
0.000106029 0.817992 -4.81174
0.000106027 1.82966 -4.7399
0.000106026 2.84251 -4.45048
0.000106024 3.80902 -3.94085
0.000106023 4.68081 -3.21889
0.000106021 5.41103 -2.30311
0.000106019 5.95664 -1.22241
0.000106018 6.28076 -0.0151187
0.000106016 0.193748 0.0387894
0.000106015 0.366579 0.153948
0.000106013 0.494025 0.336238
0.000106011 0.557064 0.570819
0.00010601 0.541021 0.838146
0.000106008 0.436643 1.11516
0.000106007 0.240859 1.37668
0.000106005 -0.0428048 1.59702
0.000106003 -0.404202 1.75156
0.000106002 -0.826917 1.8184
0.000106 -1.28901 1.77985
0.000105999 -1.76407 1.62374
0.000105997 -2.22262 1.34442
0.000105996 -2.63369 0.943503
0.000105994 -2.96657 0.430163
0.000105992 -3.19258 -0.178972
0.000105991 -3.28687 -0.860315
0.000105989 -3.22999 -1.58424
0.000105988 -3.00936 -2.31635
0.000105986 -2.62028 -3.01909
0.000105984 -2.06672 -3.65356
0.000105983 -1.36159 -4.18149
0.000105981 -0.526627 -4.56733
0.00010598 0.408279 -4.78019
0.000105978 1.40609 -4.79571
0.000105976 2.4241 -4.59769
0.000105975 3.41576 -4.1793
0.000105973 4.33278 -3.54401
0.000105972 5.12738 -2.70592
0.00010597 5.75466 -1.68968
0.000105969 6.1749 -0.52982
0.000105967 0.11366 0.0130606
0.000105965 0.298995 0.0972315
0.000105964 0.447835 0.253098
0.000105962 0.539722 0.468058
0.000105961 0.558026 0.724395
0.000105959 0.49113 1.00035
0.000105957 0.333319 1.27144
0.000105956 0.0853503 1.512
0.000105954 -0.245363 1.69676
0.000105953 -0.644944 1.8025
0.000105951 -1.09364 1.80961
0.000105949 -1.56674 1.70347
0.000105948 -2.03587 1.47563
0.000105946 -2.47048 1.12461
0.000105945 -2.83952 0.656429
0.000105943 -3.11326 0.0846551
0.000105942 -3.26504 -0.569932
0.00010594 -3.27299 -1.28008
0.000105938 -3.12151 -2.01321
0.000105937 -2.80251 -2.73286
0.000105935 -2.31631 -3.40045
0.000105934 -1.67208 -3.97722
0.000105932 -0.887942 -4.42622
0.00010593 0.00951636 -4.7144
0.000105929 0.986062 -4.81447
0.000105927 2.00115 -4.70665
0.000105926 3.00959 -4.3801
0.000105924 3.96354 -3.83393
0.000105922 4.81473 -3.07779
0.000105921 5.51677 -2.132
0.000105919 6.02753 -1.02708
0.000105918 0.031207 0.00097467
0.000105916 0.225069 0.0529886
0.000105915 0.391746 0.180243
0.000105913 0.50959 0.372504
0.000105911 0.560222 0.61407
0.00010591 0.529812 0.884714
0.000105908 0.410102 1.16092
0.000105907 0.199114 1.4173
0.000105905 -0.0985081 1.62825
0.000105903 -0.471525 1.76947
0.000105902 -0.902532 1.8197
0.0001059 -1.36875 1.76207
0.000105899 -1.84316 1.58544
0.000105897 -2.29591 1.28535
0.000105896 -2.69595 0.864687
0.000105894 -3.01278 0.333878
0.000105892 -3.21825 -0.289226
0.000105891 -3.28831 -0.979948
0.000105889 -3.20458 -1.70776
0.000105888 -2.95572 -2.43762
0.000105886 -2.53846 -3.13161
0.000105884 -1.95827 -3.75079
0.000105883 -1.22956 -4.25722
0.000105881 -0.375489 -4.61598
0.00010588 0.57276 -4.79715
0.000105878 1.57708 -4.77766
0.000105876 2.59399 -4.54278
0.000105875 3.5765 -4.0874
0.000105873 4.47623 -3.41673
0.000105872 5.24572 -2.54668
0.00010587 5.84079 -1.50362
0.000105869 6.22281 -0.323648
0.000105867 0.146418 0.021835
0.000105865 0.32717 0.118699
0.000105864 0.467776 0.285534
0.000105862 0.54833 0.508816
0.000105861 0.55297 0.770064
0.000105859 0.471015 1.04696
0.000105857 0.297811 1.31473
0.000105856 0.0352293 1.54764
0.000105854 -0.308204 1.72065
0.000105853 -0.717572 1.81106
0.000105851 -1.17221 1.79999
0.00010585 -1.64671 1.6738
0.000105848 -2.11221 1.42515
0.000105846 -2.53795 1.0538
0.000105845 -2.89299 0.567053
0.000105843 -3.14797 -0.0202867
0.000105842 -3.27694 -0.686284
0.00010584 -3.25899 -1.4027
0.000105838 -3.07969 -2.13619
0.000105837 -2.73232 -2.84982
0.000105835 -2.21865 -3.50482
0.000105834 -1.5494 -4.06261
0.000105832 -0.744119 -4.48675
0.000105831 0.169222 -4.74502
0.000105829 1.15523 -4.81129
0.000105827 2.17246 -4.66719
0.000105826 3.17512 -4.3035
0.000105824 4.11515 -3.72105
0.000105823 4.94442 -2.93132
0.000105821 5.6171 -1.95636
0.000105819 6.09198 -0.82837
0.000105818 0.0647153 0.00420279
0.000105816 0.255617 0.0693292
0.000105815 0.415525 0.208388
0.000105813 0.523244 0.410175
0.000105812 0.561075 0.658151
0.00010581 0.516063 0.931444
0.000105808 0.380966 1.20612
0.000105807 0.154903 1.45664
0.000105805 -0.156357 1.65749
0.000105804 -0.540501 1.78481
0.000105802 -0.979153 1.81793
0.0001058 -1.44873 1.7409
0.000105799 -1.92164 1.54363
0.000105797 -2.36771 1.22286
0.000105796 -2.75585 0.782741
0.000105794 -3.05583 0.234969
0.000105793 -3.24008 -0.401404
0.000105791 -3.28539 -1.10064
0.000105789 -3.17448 -1.83135
0.000105788 -2.8973 -2.55788
0.000105786 -2.45202 -3.24201
0.000105785 -1.8456 -3.84483
0.000105783 -1.09397 -4.32876
0.000105781 -0.221671 -4.65958
0.00010578 0.738838 -4.80842
0.000105778 1.74844 -4.75349
0.000105777 2.76292 -4.48162
0.000105775 3.73489 -3.98939
0.000105774 4.61598 -3.28379
0.000105772 5.35911 -2.38253
0.00010577 5.92087 -1.31367
0.000105769 6.2638 -0.114851
0.000105767 0.178677 0.0328214
0.000105766 0.354204 0.142158
0.000105764 0.48601 0.319577
0.000105762 0.55478 0.550655
0.000105761 0.545451 0.816181
0.000105759 0.448305 1.09332
0.000105758 0.259759 1.35703
0.000105756 -0.0171924 1.58157
0.000105755 -0.372922 1.7422
0.000105753 -0.791492 1.81674
0.000105751 -1.25136 1.78711
0.00010575 -1.72644 1.64065
0.000105748 -2.18743 1.37118
0.000105747 -2.60342 0.979718
0.000105745 -2.94362 0.474817
0.000105744 -3.17911 -0.127467
0.000105742 -3.28468 -0.804073
0.00010574 -3.24041 -1.52581
0.000105739 -3.03309 -2.25862
0.000105737 -2.6574 -2.96512
0.000105736 -2.11658 -3.60644
0.000105734 -1.42284 -4.14421
0.000105732 -0.597223 -4.54258
0.000105731 0.330996 -4.7702
0.000105729 1.3253 -4.80214
0.000105728 2.34337 -4.6215
0.000105726 3.33889 -4.22068
0.000105725 4.26363 -3.60229
0.000105723 5.06967 -2.77958
0.000105721 5.71181 -1.77638
0.00010572 6.14984 -0.626479
0.000105718 0.0980038 0.00968284
0.000105717 0.285283 0.0877739
0.000105715 0.437821 0.23832
0.000105713 0.534911 0.449162
0.000105712 0.559573 0.702955
0.00010571 0.499753 0.978216
0.000105709 0.349242 1.25063
0.000105707 0.108269 1.49456
0.000105706 -0.216281 1.68465
0.000105704 -0.611029 1.79746
0.000105702 -1.05666 1.81304
0.000105701 -1.52882 1.71631
0.000105699 -1.99937 1.49831
0.000105698 -2.43787 1.15698
0.000105696 -2.81325 0.697734
0.000105695 -3.0956 0.133539
0.000105693 -3.25797 -0.515373
0.000105691 -3.27804 -1.22223
0.00010569 -3.13965 -1.95482
0.000105688 -2.8341 -2.67694
0.000105687 -2.361 -3.35011
0.000105685 -1.72881 -3.9355
0.000105683 -0.954939 -4.39596
0.000105682 -0.0653442 -4.69803
0.00010568 0.906316 -4.81391
0.000105679 1.91994 -4.72317
0.000105677 2.93064 -4.41421
0.000105676 3.89071 -3.88531
0.000105674 4.75182 -3.14529
0.000105672 5.46736 -2.21361
0.000105671 5.99475 -1.12002
0.000105669 0.0152939 0.00023395
0.000105668 0.210325 0.045995
0.000105666 0.379994 0.167555
0.000105664 0.502452 0.355149
0.000105663 0.55901 0.593477
0.000105661 0.535435 0.862632
0.00010566 0.422995 1.13931
0.000105658 0.219193 1.39822
0.000105657 -0.0718559 1.6137
0.000105655 -0.43943 1.76131
0.000105653 -0.866589 1.81946
0.000105652 -1.33095 1.77091
0.00010565 -1.80577 1.60401
0.000105649 -2.26138 1.31375
0.000105647 -2.66675 0.902408
0.000105646 -2.99128 0.379811
0.000105644 -3.20657 -0.236763
0.000105642 -3.28817 -0.923149
0.000105641 -3.2172 -1.64924
0.000105639 -2.98172 -2.3803
0.000105638 -2.57779 -3.07857
0.000105636 -2.01016 -3.70513
0.000105634 -1.29254 -4.22187
0.000105633 -0.44741 -4.59356
0.000105631 0.494652 -4.78982
0.00010563 1.49604 -4.78697
0.000105628 2.51364 -4.56957
0.000105627 3.50065 -4.13169
0.000105625 4.40874 -3.47772
0.000105623 5.19028 -2.62272
0.000105622 5.80074 -1.59223
0.00010562 6.20098 -0.42163
0.000105619 0.130959 0.0174024
0.000105617 0.313963 0.108281
0.000105616 0.45854 0.269968
0.000105614 0.544518 0.489372
0.000105612 0.555669 0.748373
0.000105611 0.480864 1.02491
0.000105609 0.314946 1.29434
0.000105608 0.0592563 1.53096
0.000105606 -0.278204 1.70962
0.000105605 -0.683008 1.80736
0.000105603 -1.13492 1.80495
0.000105601 -1.60886 1.68828
0.0001056 -2.07619 1.44949
0.000105598 -2.50624 1.08775
0.000105597 -2.86801 0.609743
0.000105595 -3.13197 0.029699
0.000105593 -3.27182 -0.630993
0.000105592 -3.26619 -1.34456
0.00010559 -3.10009 -2.07801
0.000105589 -2.76615 -2.79462
0.000105587 -2.26546 -3.45573
0.000105586 -1.60799 -4.02263
0.000105584 -0.812624 -4.45866
0.000105582 0.0933179 -4.73119
0.000105581 1.07499 -4.81353
0.000105579 2.09137 -4.68666
0.000105578 3.09693 -4.34055
0.000105576 4.04373 -3.77525
0.000105575 4.88354 -3.00135
0.000105573 5.57027 -2.0401
0.000105571 6.06226 -0.922888
0.00010557 0.0488665 0.00239271
0.000105568 0.241253 0.0613258
0.000105567 0.404443 0.194832
0.000105565 0.517021 0.392165
0.000105564 0.560961 0.637178
0.000105562 0.522892 0.9093
0.00010556 0.395088 1.18479
0.000105559 0.176145 1.43818
0.000105557 -0.128697 1.6439
0.000105556 -0.507635 1.77787
0.000105554 -0.942749 1.81915
0.000105553 -1.41083 1.75135
0.000105551 -1.88456 1.56386
0.000105549 -2.3339 1.25288
0.000105548 -2.72778 0.821936
0.000105546 -3.03584 0.282132
0.000105545 -3.23023 -0.348046
0.000105543 -3.28732 -1.04336
0.000105541 -3.18932 -1.77282
0.00010554 -2.92556 -2.50106
0.000105538 -2.49353 -3.19
0.000105537 -1.89948 -3.8007
0.000105535 -1.15862 -4.29541
0.000105534 -0.294841 -4.63957
0.000105532 0.659998 -4.8038
0.00010553 1.66725 -4.7657
0.000105529 2.68305 -4.51137
0.000105527 3.66018 -4.03656
0.000105526 4.55027 -3.34745
0.000105524 5.30604 -2.46087
0.000105523 5.88371 -1.4041
0.000105521 6.24526 -0.214048
0.000105519 0.163469 0.0273441
0.000105518 0.34155 0.130803
0.000105516 0.477593 0.303259
0.000105515 0.551999 0.530712
0.000105513 0.549321 0.794292
0.000105512 0.459384 1.07141
0.00010551 0.278095 1.33713
0.000105508 0.00791719 1.56572
0.000105507 -0.342043 1.73229
0.000105505 -0.75633 1.81441
0.000105504 -1.21381 1.79362
0.000105502 -1.68872 1.65679
0.000105501 -2.15196 1.39717
0.000105499 -2.57268 1.01521
0.000105497 -2.92 0.51885
0.000105496 -3.16482 -0.0764361
0.000105494 -3.28154 -0.74812
0.000105493 -3.24978 -1.46746
0.000105491 -3.05575 -2.20072
0.00010549 -2.69346 -2.91073
0.000105488 -2.16547 -3.55867
0.000105486 -1.48325 -4.10605
0.000105485 -0.667165 -4.51673
0.000105483 0.254135 -4.75896
0.000105482 1.24466 -4.80722
0.00010548 2.26249 -4.64392
0.000105479 3.26157 -4.26067
0.000105477 4.19372 -3.65926
0.000105475 5.01092 -2.85209
0.000105474 5.66767 -1.86215
0.000105472 6.12327 -0.722475
0.000105471 0.0822733 0.0068075
0.000105469 0.27135 0.0787789
0.000105467 0.427453 0.223926
0.000105466 0.529638 0.43054
0.000105464 0.560581 0.681653
0.000105463 0.507798 0.956068
0.000105461 0.364588 1.22964
0.00010546 0.130654 1.47679
0.000105458 -0.187648 1.67206
0.000105456 -0.577441 1.79181
0.000105455 -1.01985 1.81575
0.000105453 -1.49089 1.72838
0.000105452 -1.96266 1.52021
0.00010545 -2.40485 1.1886
0.000105449 -2.78638 0.738369
0.000105447 -3.07718 0.181883
0.000105445 -3.25 -0.461184
0.000105444 -3.28208 -1.16454
0.000105442 -3.15674 -1.89637
0.000105441 -2.86463 -2.62072
0.000105439 -2.40467 -3.29921
0.000105438 -1.78463 -3.89299
0.000105436 -1.0212 -4.36468
0.000105434 -0.139681 -4.68047
0.000105433 0.826838 -4.81203
0.000105431 1.83871 -4.7383
0.00010543 2.85137 -4.44692
0.000105428 3.81725 -3.93535
0.000105427 4.68799 -3.21157
0.000105425 5.41675 -2.29419
0.000105423 5.96054 -1.21218
0.000105422 6.28255 -0.00396321
0.00010542 0.19542 0.0394853
0.000105419 0.367941 0.15529
0.000105417 0.494894 0.338117
0.000105416 0.557287 0.573081
0.000105414 0.540492 0.840599
0.000105412 0.435306 1.11758
0.000105411 0.238717 1.37886
0.000105409 -0.0456923 1.59872
0.000105408 -0.407715 1.75257
0.000105406 -0.830884 1.81855
0.000105405 -1.29321 1.779
0.000105403 -1.76826 1.6218
0.000105401 -2.22652 1.34138
0.0001054 -2.63704 0.939419
0.000105398 -2.96909 0.425144
0.000105397 -3.19403 -0.184746
0.000105395 -3.28705 -0.866605
0.000105394 -3.22877 -1.59076
0.000105392 -3.00664 -2.32278
0.00010539 -2.61607 -3.02508
0.000105389 -2.06109 -3.65877
0.000105387 -1.35471 -4.1856
0.000105386 -0.518714 -4.57003
0.000105384 0.416924 -4.78123
0.000105383 1.41511 -4.79491
0.000105381 2.43309 -4.59494
0.000105379 3.42431 -4.1746
0.000105378 4.34045 -3.53743
0.000105376 5.13375 -2.69764
0.000105375 5.75936 -1.67995
0.000105373 6.17761 -0.518999
0.000105372 0.115401 0.0134683
0.00010537 0.30051 0.0983148
0.000105368 0.44893 0.25477
0.000105367 0.540229 0.470183
0.000105365 0.55782 0.726794
0.000105364 0.490132 1.00281
0.000105362 0.331508 1.27375
0.000105361 0.0827614 1.51392
0.000105359 -0.248634 1.69808
0.000105357 -0.648746 1.80302
0.000105356 -1.09777 1.80918
0.000105354 -1.57097 1.70199
0.000105353 -2.03993 1.47305
0.000105351 -2.47409 1.12095
0.00010535 -2.84241 0.651781
0.000105348 -3.11518 0.0791699
0.000105347 -3.26577 -0.57604
0.000105345 -3.27236 -1.28654
0.000105343 -3.11942 -2.01972
0.000105342 -2.79892 -2.73907
0.00010534 -2.31126 -3.40603
0.000105339 -1.6657 -3.98182
0.000105337 -0.880424 -4.42953
0.000105336 0.0178973 -4.71615
0.000105334 0.994972 -4.81445
0.000105332 2.0102 -4.70472
0.000105331 3.01837 -4.37621
0.000105329 3.97162 -3.82812
0.000105328 4.82169 -3.07019
0.000105326 5.52221 -2.12283
0.000105325 6.03109 -1.01667
0.000105323 0.0329806 0.00108871
0.000105321 0.226703 0.0537985
0.00010532 0.393038 0.181684
0.000105318 0.51036 0.37446
0.000105317 0.560325 0.616379
0.000105315 0.529149 0.887179
0.000105314 0.408628 1.16332
0.000105312 0.19684 1.41942
0.00010531 -0.101511 1.62984
0.000105309 -0.475128 1.77035
0.000105307 -0.906555 1.81968
0.000105306 -1.37297 1.76103
0.000105304 -1.84732 1.58332
0.000105303 -2.29974 1.28214
0.000105301 -2.69917 0.860437
0.000105299 -3.01513 0.328719
0.000105298 -3.2195 -0.295104
0.000105296 -3.28827 -0.986298
0.000105295 -3.20311 -1.71429
0.000105293 -2.95275 -2.444
0.000105292 -2.53401 -3.13749
0.00010529 -1.95242 -3.75584
0.000105288 -1.22249 -4.2611
0.000105287 -0.367429 -4.61841
0.000105285 0.581494 -4.79789
0.000105284 1.58613 -4.77653
0.000105282 2.60294 -4.53971
0.000105281 3.58493 -4.08237
0.000105279 4.4837 -3.40985
0.000105277 5.25183 -2.53813
0.000105276 5.84517 -1.49368
0.000105274 6.22515 -0.312683
0.000105273 0.148135 0.0223601
0.000105271 0.328627 0.119889
0.00010527 0.468783 0.287293
0.000105268 0.548725 0.510999
0.000105267 0.552635 0.77249
0.000105265 0.46988 1.04942
0.000105263 0.295864 1.31699
0.000105262 0.0325175 1.54947
0.00010526 -0.311576 1.72185
0.000105259 -0.721445 1.81143
0.000105257 -1.17638 1.7994
0.000105256 -1.65093 1.67214
0.000105254 -2.11622 1.42238
0.000105252 -2.54146 1.04997
0.000105251 -2.89573 0.562252
0.000105249 -3.14971 -0.0258931
0.000105248 -3.27746 -0.692471
0.000105246 -3.25812 -1.40919
0.000105245 -3.07734 -2.14267
0.000105243 -2.72848 -2.85595
0.000105241 -2.21337 -3.51026
0.00010524 -1.54281 -4.06702
0.000105238 -0.736435 -4.48982
0.000105237 0.177717 -4.74649
0.000105235 1.1642 -4.81096
0.000105234 2.1815 -4.66494
0.000105232 3.18382 -4.29928
0.00010523 4.12308 -3.71493
0.000105229 4.95115 -2.92343
0.000105227 5.62224 -1.94697
0.000105226 6.0952 -0.817784
0.000105224 0.0664801 0.004436
0.000105223 0.257207 0.0702511
0.000105221 0.416741 0.209925
0.00010522 0.52391 0.412202
0.000105218 0.561055 0.660501
0.000105216 0.515266 0.933914
0.000105215 0.379355 1.20849
0.000105213 0.1525 1.45868
0.000105212 -0.159471 1.65898
0.00010521 -0.544188 1.78554
0.000105209 -0.983226 1.81775
0.000105207 -1.45296 1.73968
0.000105205 -1.92577 1.54132
0.000105204 -2.37146 1.21947
0.000105202 -2.75894 0.778327
0.000105201 -3.05802 0.229674
0.000105199 -3.24113 -0.40738
0.000105198 -3.28511 -1.10704
0.000105196 -3.17276 -1.83787
0.000105194 -2.89408 -2.5642
0.000105193 -2.44732 -3.24778
0.000105191 -1.83953 -3.84971
0.00010519 -1.08671 -4.33242
0.000105188 -0.213475 -4.66174
0.000105187 0.747651 -4.80885
0.000105185 1.7575 -4.75204
0.000105184 2.77181 -4.47822
0.000105182 3.74319 -3.98404
0.00010518 4.62325 -3.27661
0.000105179 5.36496 -2.37372
0.000105177 5.92493 -1.30353
0.000105176 6.26577 -0.103754
0.000105174 0.180365 0.0334628
0.000105173 0.355598 0.143452
0.000105171 0.486924 0.321419
0.000105169 0.55506 0.552893
0.000105168 0.544985 0.818628
0.000105166 0.447033 1.09576
0.000105165 0.257679 1.35923
0.000105163 -0.0200242 1.58332
0.000105162 -0.376391 1.74327
0.00010516 -0.79543 1.81696
0.000105158 -1.25555 1.78634
0.000105157 -1.73064 1.63881
0.000105155 -2.19137 1.36824
0.000105154 -2.60682 0.975714
0.000105152 -2.94621 0.469867
0.000105151 -3.18066 -0.133188
0.000105149 -3.28497 -0.810332
0.000105148 -3.2393 -1.53232
0.000105146 -3.0305 -2.26506
0.000105144 -2.65331 -2.97116
0.000105143 -2.11107 -3.61173
0.000105141 -1.41605 -4.14842
0.00010514 -0.589382 -4.54539
0.000105138 0.339595 -4.77137
0.000105137 1.3343 -4.80149
0.000105135 2.35238 -4.61892
0.000105133 3.34749 -4.21613
0.000105132 4.27138 -3.59585
0.00010513 5.07616 -2.77142
0.000105129 5.71666 -1.76676
0.000105127 6.15271 -0.615731
0.000105126 0.0997539 0.0100347
0.000105124 0.286824 0.0888059
0.000105123 0.438955 0.239949
0.000105121 0.53547 0.451256
0.000105119 0.559427 0.70534
0.000105118 0.49882 0.980686
0.000105116 0.347495 1.25296
0.000105115 0.105739 1.49653
0.000105113 -0.219503 1.68603
0.000105112 -0.614796 1.79806
0.00010511 -1.06077 1.81269
0.000105108 -1.53305 1.71492
0.000105107 -2.00345 1.49582
0.000105105 -2.44152 1.15341
0.000105104 -2.81621 0.69316
0.000105102 -3.09761 0.128114
0.000105101 -3.2588 -0.52144
0.000105099 -3.27752 -1.22868
0.000105098 -3.13768 -1.96134
0.000105096 -2.83063 -2.68319
0.000105094 -2.35606 -3.35575
0.000105093 -1.72253 -3.94019
0.000105091 -0.947503 -4.39938
0.00010509 -0.0570205 -4.69991
0.000105088 0.915197 -4.81404
0.000105087 1.929 -4.7214
0.000105085 2.93946 -4.41048
0.000105083 3.89886 -3.87965
0.000105082 4.75889 -3.13782
0.00010508 5.47293 -2.20456
0.000105079 5.99848 -1.10969
0.000105077 0.0170695 0.00029144
0.000105076 0.211978 0.0467511
0.000105074 0.38132 0.16895
0.000105073 0.503269 0.357069
0.000105071 0.559171 0.595764
0.000105069 0.534836 0.865093
0.000105068 0.421586 1.14172
0.000105066 0.216981 1.40036
0.000105065 -0.0748044 1.61534
0.000105063 -0.442991 1.76225
0.000105062 -0.870586 1.81952
0.00010506 -1.33516 1.76996
0.000105059 -1.80995 1.60198
0.000105057 -2.26524 1.31062
0.000105055 -2.67003 0.898236
0.000105054 -2.99371 0.374718
0.000105052 -3.20791 -0.242592
0.000105051 -3.28823 -0.929472
0.000105049 -3.21584 -1.65577
0.000105048 -2.97887 -2.38671
0.000105046 -2.57345 -3.08451
0.000105044 -2.00442 -3.71026
