ply
format ascii 1.0 
element vertex 1805
property float32 x
property float32 y
property float32 z
end_header
0.656413 -3.28777 -0.896821
0.656412 -3.22271 -1.62204
0.65641 -2.99344 -2.35358
0.656409 -2.59572 -3.05375
0.656408 -2.03397 -3.68365
0.656406 -1.32156 -4.20511
0.656405 -0.480648 -4.58275
0.656404 0.458456 -4.78598
0.656403 1.45839 -4.79083
0.656401 2.4762 -4.58154
0.6564 3.46521 -4.15182
0.656399 4.37708 -3.50565
0.656397 5.16413 -2.6577
0.656396 5.78166 -1.63314
0.656395 6.1903 -0.46699
0.656394 0.123735 0.0155107
0.656392 0.307736 0.10359
0.656391 0.454117 0.262854
0.65639 0.542583 0.480416
0.656389 0.556737 0.738323
0.656387 0.485246 1.01464
0.656386 0.322719 1.28479
0.656385 0.0702527 1.52308
0.656383 -0.264398 1.70432
0.656382 -0.667036 1.80542
0.656381 -1.11762 1.80701
0.65638 -1.59124 1.69476
0.656378 -2.05936 1.46054
0.656377 -2.49134 1.10328
0.656376 -2.85618 0.629374
0.656374 -3.12426 0.0527705
0.656373 -3.26912 -0.605394
0.656372 -3.26918 -1.31756
0.656371 -3.10921 -2.05091
0.656369 -2.78152 -2.76883
0.656368 -2.28688 -3.43269
0.656367 -1.63494 -4.00375
0.656366 -0.844243 -4.44524
0.656364 0.0581819 -4.72435
0.656363 1.03775 -4.81412
0.656362 2.05363 -4.69523
0.65636 3.06044 -4.35731
0.656359 4.01028 -3.8
0.656358 4.8549 -3.03352
0.656357 5.54807 -2.0787
0.656355 6.04795 -0.966595
0.656354 0.0414826 0.00172328
0.656353 0.234509 0.0577657
0.656351 0.399178 0.188666
0.65635 0.513977 0.383893
0.656349 0.56073 0.627483
0.656348 0.525873 0.899009
0.656346 0.401457 1.17482
0.656345 0.185838 1.42949
0.656344 -0.115995 1.63741
0.656343 -0.492472 1.77445
0.656341 -0.92589 1.81948
0.65634 -1.39322 1.75595
0.656339 -1.86726 1.57301
0.656337 -2.31806 1.26658
0.656336 -2.71454 0.839928
0.656335 -3.0263 0.30387
0.656334 -3.22535 -0.323372
0.656332 -3.28788 -1.01679
0.656331 -3.19586 -1.7456
0.65633 -2.93834 -2.47456
0.656329 -2.51248 -3.16564
0.656327 -1.92422 -3.77993
0.656326 -1.18842 -4.27957
0.656325 -0.328672 -4.62987
0.656323 0.623446 -4.80121
0.656322 1.62952 -4.77091
0.656321 2.64582 -4.52472
0.65632 3.62525 -4.05804
0.656318 4.51942 -3.37663
0.656317 5.28097 -2.49694
0.656316 5.86595 -1.44586
0.656314 6.2361 -0.25999
0.656313 0.156353 0.0249648
0.656312 0.335573 0.125672
0.656311 0.473544 0.29579
0.656309 0.550537 0.521515
0.656308 0.550931 0.784141
0.656307 0.464338 1.06119
0.656306 0.28643 1.32779
0.656304 0.0194214 1.55821
0.656303 -0.327823 1.7275
0.656302 -0.740072 1.81311
0.6563 -1.19639 1.7964
0.656299 -1.67116 1.66402
0.656298 -2.13537 1.409
0.656297 -2.55822 1.03147
0.656295 -2.9088 0.539113
0.656294 -3.15789 -0.0528694
0.656293 -3.27976 -0.722201
0.656292 -3.25379 -1.44035
0.65629 -3.06593 -2.17374
0.656289 -2.70988 -2.8853
0.656288 -2.18787 -3.53624
0.656286 -1.51106 -4.088
0.656285 -0.699464 -4.50435
0.656284 0.21854 -4.75331
0.656283 1.20722 -4.80913
0.656281 2.22484 -4.65387
0.65628 3.22546 -4.2788
0.656279 4.16095 -3.68531
0.656278 4.98325 -2.88542
0.656276 5.6467 -1.90171
0.656275 6.1104 -0.766886
0.656274 0.0749357 0.00564188
0.656272 0.264798 0.0747547
0.656271 0.422513 0.217366
0.65627 0.52703 0.421976
0.656269 0.560868 0.671797
0.656267 0.511343 0.945765
0.656266 0.371527 1.21982
0.656265 0.140881 1.46841
0.656263 -0.174487 1.66604
0.656262 -0.561934 1.78897
0.656261 -1.00279 1.81677
0.65626 -1.47325 1.73373
0.656258 -1.94553 1.53013
0.656257 -2.38937 1.20305
0.656256 -2.77369 0.757036
0.656255 -3.06836 0.204177
0.656253 -3.24598 -0.436114
0.656252 -3.28361 -1.13778
0.656251 -3.16432 -1.86917
0.656249 -2.87846 -2.59447
0.656248 -2.42463 -3.27536
0.656247 -1.81028 -3.87296
0.656246 -1.05176 -4.3498
0.656244 -0.174068 -4.67191
0.656243 0.789975 -4.81072
0.656242 1.80094 -4.74486
0.656241 2.81441 -4.46165
0.656239 3.78288 -3.95816
0.656238 4.65799 -3.24197
0.656237 5.39281 -2.33131
0.656235 5.94416 -1.25476
0.656234 6.27495 -0.0504361
0.656233 0.188436 0.0366237
0.656232 0.362236 0.149731
0.65623 0.491238 0.33031
0.656229 0.556314 0.563666
0.656228 0.542651 0.830373
0.656227 0.440832 1.10745
0.656225 0.247605 1.36976
0.656224 -0.0336932 1.59161
0.656223 -0.393098 1.74831
0.656221 -0.814364 1.81789
0.65622 -1.27569 1.7825
0.656219 -1.75078 1.62981
0.656218 -2.21021 1.35397
0.656216 -2.62305 0.956388
0.656215 -2.95853 0.446019
0.656214 -3.18791 -0.160711
0.656213 -3.2862 -0.8404
0.656211 -3.23379 -1.56358
0.65621 -3.01787 -2.29596
0.656209 -2.63352 -3.00006
0.656207 -2.08445 -3.63698
0.656206 -1.38334 -4.16842
0.656205 -0.551658 -4.55871
0.656204 0.380911 -4.7768
0.656202 1.37751 -4.79814
0.656201 2.39558 -4.60627
0.6562 3.38864 -4.19409
0.656199 4.30842 -3.56476
0.656197 5.1071 -2.73209
0.656196 5.73966 -1.72043
0.656195 6.16622 -0.564065
0.656193 0.108134 0.0118092
0.656192 0.294174 0.0938355
0.656191 0.444336 0.24783
0.65619 0.538074 0.461347
0.656188 0.558635 0.7168
0.656187 0.494245 0.992527
0.656186 0.339014 1.26411
0.656185 0.0935131 1.50588
0.656183 -0.235031 1.69254
0.656182 -0.632918 1.80079
0.656181 -1.08054 1.8109
0.656179 -1.55333 1.7081
0.656178 -2.02299 1.48373
0.656177 -2.459 1.13614
0.656176 -2.8303 0.671107
0.656174 -3.1071 0.101998
0.656173 -3.26264 -0.550603
0.656172 -3.27489 -1.25961
0.656171 -3.12805 -1.99258
0.656169 -2.8138 -2.71313
0.656168 -2.33222 -3.38272
0.656167 -1.69224 -3.96256
0.656165 -0.91171 -4.41564
0.656164 -0.0170072 -4.70875
0.656163 0.957841 -4.81442
0.656162 1.97244 -4.71265
0.65616 2.98172 -4.39232
0.656159 3.93787 -3.85225
0.656158 4.7926 -3.1018
0.656157 5.49944 -2.16097
0.656155 6.0161 -1.06003
0.656154 0.0255835 0.000654872
0.656153 0.219876 0.0504611
0.656151 0.387627 0.17571
0.65615 0.507115 0.366332
0.656149 0.559852 0.606768
0.656148 0.531865 0.876903
0.656146 0.414727 1.15329
0.656145 0.206276 1.41059
0.656144 -0.0890306 1.62315
0.656143 -0.460136 1.76665
0.656141 -0.889799 1.81969
0.65614 -1.35538 1.76528
0.656139 -1.82996 1.59209
0.656137 -2.28374 1.29548
0.656136 -2.68569 0.878103
0.656135 -3.00526 0.350184
0.656134 -3.21422 -0.270629
0.656132 -3.28837 -0.95984
0.656131 -3.20916 -1.68707
0.65613 -2.96503 -2.41738
0.656129 -2.55248 -3.11291
0.656127 -1.97672 -3.73473
0.656126 -1.25192 -4.24483
0.656125 -0.400984 -4.60818
0.656124 0.545105 -4.79471
0.656122 1.54842 -4.7811
0.656121 2.56561 -4.55241
0.65612 3.54974 -4.10321
0.656118 4.45246 -3.43844
0.656117 5.22624 -2.57369
0.656116 5.82678 -1.53504
0.656115 6.21527 -0.358355
0.656113 0.140965 0.0202112
0.656112 0.32253 0.114965
0.656111 0.464554 0.27999
0.65611 0.547038 0.501914
0.656108 0.553987 0.762383
0.656107 0.474563 1.03917
0.656106 0.303933 1.30755
0.656104 0.0437827 1.54179
0.656103 -0.297549 1.71681
0.656102 -0.705319 1.80983
0.656101 -1.15901 1.80183
0.656099 -1.63334 1.67901
0.656098 -2.09951 1.43384
0.656097 -2.52679 1.06589
0.656096 -2.88423 0.582219
0.656094 -3.14241 -0.0025576
0.656093 -3.27524 -0.6667
0.656092 -3.26165 -1.38213
0.65609 -3.08702 -2.11563
0.656089 -2.7444 -2.83034
0.656088 -2.23531 -3.48754
0.656087 -1.57021 -4.04857
0.656085 -0.768416 -4.47694
0.656084 0.142334 -4.74027
0.656083 1.12684 -4.81224
0.656082 2.1438 -4.67423
0.65608 3.14753 -4.31676
0.656079 4.08998 -3.74036
0.656078 4.92301 -2.95621
0.656077 5.60069 -1.98608
0.656075 6.08164 -0.861867
0.656074 0.0591174 0.00350511
0.656073 0.250561 0.0664456
0.656071 0.411645 0.20355
0.65607 0.521094 0.403774
0.656069 0.561095 0.650718
0.656068 0.518543 0.923614
0.656066 0.386025 1.19859
0.656065 0.162475 1.45015
0.656064 -0.146525 1.65274
0.656063 -0.528842 1.78242
0.656061 -0.96626 1.81844
0.65606 -1.43533 1.74468
0.656059 -1.90855 1.55087
0.656057 -2.3558 1.23356
0.656056 -2.74599 0.796676
0.656055 -3.04885 0.251707
0.656054 -3.2367 -0.382494
0.656052 -3.28619 -1.08037
0.656051 -3.17985 -1.81066
0.65605 -2.90741 -2.53782
0.656049 -2.46681 -3.22368
0.656047 -1.86475 -3.82932
0.656046 -1.11691 -4.31708
0.656045 -0.247604 -4.65264
0.656044 0.710929 -4.80693
0.656042 1.71973 -4.75797
0.656041 2.73471 -4.4923
0.65604 3.70854 -4.00622
0.656038 4.59285 -3.30644
0.656037 5.34048 -2.41035
0.656036 5.90789 -1.34573
0.656035 6.25742 -0.149982
0.656033 0.173315 0.0308288
0.656032 0.349761 0.138094
0.656031 0.48308 0.313769
0.65603 0.553854 0.543579
0.656028 0.546883 0.808434
0.656027 0.452288 1.08559
0.656026 0.266306 1.35002
0.656024 -0.00825778 1.57601
0.656023 -0.361959 1.73876
0.656022 -0.77903 1.81599
0.656021 -1.23808 1.7895
0.656019 -1.71311 1.64645
0.656018 -2.17492 1.38046
0.656017 -2.59261 0.992348
0.656016 -2.93534 0.490455
0.656014 -3.17415 -0.109371
0.656013 -3.28368 -0.784258
0.656012 -3.24384 -1.50517
0.656011 -3.04123 -2.23817
0.656009 -2.67027 -2.94594
0.656008 -2.13397 -3.58963
0.656007 -1.4443 -4.13082
0.656005 -0.622025 -4.53356
0.656004 0.303775 -4.76637
0.656003 1.29677 -4.80409
0.656002 2.31479 -4.62959
0.656 3.3116 -4.23498
0.655999 4.239 -3.62258
0.655998 5.04902 -2.80535
0.655997 5.69635 -1.80681
0.655995 6.14062 -0.660493
0.655994 0.0924507 0.00860886
0.655993 0.280382 0.0845409
0.655992 0.434195 0.233187
0.65599 0.533099 0.442547
0.655989 0.559991 0.695408
0.655988 0.502663 0.970388
0.655986 0.354733 1.24323
0.655985 0.116243 1.48832
0.655984 -0.206107 1.68026
0.655983 -0.599117 1.79553
0.655981 -1.04362 1.81408
0.65598 -1.51541 1.72067
0.655979 -1.98641 1.50614
0.655978 -2.42624 1.16825
0.655976 -2.80382 0.712176
0.655975 -3.08918 0.150692
0.655974 -3.25525 -0.496173
0.655973 -3.27958 -1.20182
0.655971 -3.14582 -1.93416
0.65597 -2.84502 -2.6571
0.655969 -2.37655 -3.33218
0.655967 -1.74864 -3.92056
0.655966 -0.978449 -4.38501
0.655965 -0.0916847 -4.69195
0.655964 0.878187 -4.8134
0.655962 1.89123 -4.72868
0.655961 2.90265 -4.42593
0.65596 3.86481 -3.90316
0.655959 4.72936 -3.16886
0.655957 5.4496 -2.24222
0.655956 5.98282 -1.15269
0.655955 0.00966487 9.3417e-05
0.655953 0.205074 0.0436382
0.655952 0.375767 0.163171
0.655951 0.499828 0.34909
0.65595 0.558459 0.586243
0.655948 0.537287 0.854837
0.655947 0.427414 1.13164
0.655946 0.226159 1.39141
0.655945 -0.0625503 1.60845
0.655943 -0.428174 1.75828
0.655942 -0.853939 1.81922
0.655941 -1.3176 1.77385
0.65594 -1.79252 1.61039
0.655938 -2.24909 1.32361
0.655937 -2.6563 0.915574
0.655936 -2.98351 0.395906
0.655935 -3.20223 -0.218322
0.655933 -3.28788 -0.90313
0.655932 -3.22141 -1.62856
0.655931 -2.99065 -2.35999
0.655929 -2.59144 -3.05971
0.655928 -2.02828 -3.68882
0.655927 -1.31461 -4.20915
0.655926 -0.472689 -4.58537
0.655924 0.467129 -4.78693
0.655923 1.46742 -4.78993
0.655922 2.48519 -4.5787
0.655921 3.47372 -4.14702
0.655919 4.38469 -3.49898
0.655918 5.17042 -2.64933
0.655917 5.78626 -1.62334
0.655916 6.19289 -0.456123
0.655914 0.12547 0.0159546
0.655913 0.309234 0.104706
0.655912 0.455185 0.264553
0.65591 0.543056 0.482559
0.655909 0.556492 0.740731
0.655908 0.484207 1.0171
0.655907 0.320866 1.28709
0.655905 0.0676258 1.52498
0.655904 -0.2677 1.7056
0.655903 -0.670861 1.8059
0.655902 -1.12177 1.80653
0.6559 -1.59547 1.69322
0.655899 -2.0634 1.45791
0.655898 -2.49492 1.09957
0.655897 -2.85903 0.624679
0.655895 -3.12612 0.0472476
0.655894 -3.26979 -0.611526
0.655893 -3.26849 -1.32403
0.655891 -3.10704 -2.05741
0.65589 -2.77786 -2.77502
0.655889 -2.28177 -3.43822
0.655888 -1.62849 -4.0083
0.655886 -0.836674 -4.44848
0.655885 0.0665988 -4.72601
0.655884 1.04668 -4.81401
0.655883 2.06268 -4.6932
0.655881 3.0692 -4.35332
0.65588 4.01831 -3.79409
0.655879 4.86179 -3.02583
0.655878 5.55342 -2.06946
0.655876 6.05141 -0.956127
0.655875 0.0432541 0.00187385
0.655874 0.23613 0.0586101
0.655873 0.400447 0.190137
0.655871 0.514715 0.385871
0.65587 0.560796 0.629805
0.655869 0.52517 0.901477
0.655867 0.399941 1.17721
0.655866 0.183524 1.43158
0.655865 -0.119032 1.63898
0.655864 -0.496102 1.77528
0.655862 -0.929929 1.81942
0.655861 -1.39744 1.75486
0.65586 -1.87141 1.57083
0.655859 -2.32186 1.26331
0.655857 -2.71773 0.835627
0.655856 -3.0286 0.298668
0.655855 -3.22654 -0.329281
0.655854 -3.28777 -1.02316
0.655852 -3.19431 -1.75213
0.655851 -2.9353 -2.48092
0.65585 -2.50796 -3.17149
0.655848 -1.9183 -3.78493
0.655847 -1.18129 -4.28339
0.655846 -0.32057 -4.63222
0.655845 0.632206 -4.80186
0.655843 1.63857 -4.76969
0.655842 2.65476 -4.52155
0.655841 3.63364 -4.05291
0.65584 4.52683 -3.36965
0.655838 5.287 -2.48831
0.655837 5.87024 -1.43586
0.655836 6.23833 -0.248983
0.655835 0.158062 0.0255256
0.655833 0.337011 0.126894
0.655832 0.474523 0.297574
0.655831 0.550897 0.523716
0.65583 0.550556 0.786574
0.655828 0.463161 1.06364
0.655827 0.284442 1.33003
0.655826 0.0166725 1.56002
0.655824 -0.331225 1.72866
0.655823 -0.743965 1.81343
0.655822 -1.20057 1.79575
0.655821 -1.67537 1.6623
0.655819 -2.13935 1.40618
0.655818 -2.56169 1.02758
0.655817 -2.9115 0.534266
0.655816 -3.15957 -0.0585116
0.655814 -3.28021 -0.728411
0.655813 -3.25285 -1.44685
0.655812 -3.06351 -2.18021
0.655811 -2.70596 -2.89141
0.655809 -2.18252 -3.54163
0.655808 -1.5044 -4.09235
0.655807 -0.691731 -4.50734
0.655806 0.227068 -4.75469
0.655804 1.21619 -4.8087
0.655803 2.23387 -4.65151
0.655802 3.23413 -4.27448
0.6558 4.16883 -3.67909
0.655799 4.98991 -2.87745
0.655798 5.65175 -1.89224
0.655797 6.11351 -0.756248
0.655795 0.0766966 0.00591148
0.655794 0.266374 0.0757106
0.655793 0.423705 0.218931
0.655792 0.527664 0.424024
0.65579 0.560809 0.674158
0.655789 0.510504 0.948236
0.655788 0.369875 1.22218
0.655787 0.138439 1.47042
0.655785 -0.177634 1.66749
0.655784 -0.565646 1.78966
0.655783 -1.00688 1.81654
0.655782 -1.47748 1.73247
0.65578 -1.94964 1.52776
0.655779 -2.39309 1.1996
0.655778 -2.77675 0.752573
0.655776 -3.07049 0.198842
0.655775 -3.24696 -0.442118
0.655774 -3.28326 -1.14419
0.655773 -3.16252 -1.8757
0.655771 -2.87516 -2.60077
0.65577 -2.41987 -3.28109
0.655769 -1.80414 -3.87778
0.655768 -1.04444 -4.35339
0.655766 -0.165832 -4.67398
0.655765 0.79881 -4.81106
0.655764 1.81 -4.74332
0.655763 2.82328 -4.45814
0.655761 3.79114 -3.95272
0.65576 4.66521 -3.23471
0.655759 5.39857 -2.32243
0.655758 5.94811 -1.24457
0.655756 6.2768 -0.0393009
0.655755 0.190114 0.0373003
0.655754 0.36361 0.151055
0.655753 0.492123 0.332175
0.655751 0.556557 0.56592
0.65575 0.542144 0.832824
0.655749 0.439518 1.10988
0.655747 0.245485 1.37195
0.655746 -0.0365611 1.59332
0.655745 -0.396596 1.74935
0.655744 -0.818321 1.81806
0.655742 -1.27989 1.78168
0.655741 -1.75497 1.6279
0.65574 -2.21413 1.35097
0.655739 -2.62641 0.952332
0.655737 -2.96108 0.441025
0.655736 -3.1894 -0.166466
0.655735 -3.28643 -0.846679
0.655734 -3.23261 -1.57009
0.655732 -3.0152 -2.3024
0.655731 -2.62935 -3.00607
0.65573 -2.07887 -3.64222
0.655729 -1.37649 -4.17255
0.655727 -0.54377 -4.56144
0.655726 0.38954 -4.77789
0.655725 1.38652 -4.79739
0.655723 2.40458 -4.60358
0.655722 3.3972 -4.18944
0.655721 4.31612 -3.55823
0.65572 5.11351 -2.72385
0.655718 5.74441 -1.71074
0.655717 6.16898 -0.55327
0.655716 0.109879 0.0121972
0.655715 0.295698 0.0949007
0.655713 0.445445 0.249487
0.655712 0.5386 0.463461
0.655711 0.55845 0.719195
0.65571 0.49327 0.994994
0.655708 0.337225 1.26642
0.655707 0.090945 1.50781
0.655706 -0.238285 1.69388
0.655705 -0.636707 1.80134
0.655703 -1.08467 1.8105
0.655702 -1.55756 1.70665
0.655701 -2.02706 1.48119
0.6557 -2.46262 1.13251
0.655698 -2.83322 0.666485
0.655697 -3.10906 0.0965335
0.655696 -3.26341 -0.556696
0.655695 -3.2743 -1.26607
0.655693 -3.126 -1.99909
0.655692 -2.81026 -2.71936
0.655691 -2.32722 -3.38832
0.655689 -1.68589 -3.96719
0.655688 -0.904221 -4.41899
0.655687 -0.00864622 -4.71055
0.655686 0.966741 -4.81445
0.655684 1.9815 -4.71078
0.655683 2.99051 -4.38849
0.655682 3.94598 -3.84649
0.655681 4.79959 -3.09424
0.655679 5.50493 -2.15184
0.655678 6.01973 -1.04964
0.655677 0.0273579 0.000748923
0.655676 0.221516 0.051252
0.655674 0.388931 0.177134
0.655673 0.507902 0.368275
0.655672 0.559976 0.609069
0.655671 0.531225 0.879367
0.655669 0.413276 1.1557
0.655668 0.204024 1.41271
0.655667 -0.0920141 1.62476
0.655666 -0.463724 1.76755
0.655664 -0.893813 1.8197
0.655663 -1.3596 1.76427
0.655662 -1.83412 1.59
0.65566 -2.28758 1.2923
0.655659 -2.68893 0.87388
0.655658 -3.00764 0.345048
0.655657 -3.2155 -0.27649
0.655655 -3.28837 -0.966181
0.655654 -3.20773 -1.6936
0.655653 -2.96211 -2.42377
0.655652 -2.54807 -3.11882
0.65565 -1.97091 -3.73981
0.655649 -1.24488 -4.24875
0.655648 -0.392949 -4.61065
0.655647 0.553825 -4.79549
0.655645 1.55746 -4.78004
0.655644 2.57457 -4.54939
0.655643 3.55819 -4.09824
0.655642 4.45997 -3.43161
0.65564 5.2324 -2.56519
0.655639 5.83122 -1.52514
0.655638 6.21767 -0.347413
0.655637 0.142687 0.0207167
0.655635 0.323997 0.116137
0.655634 0.465576 0.281734
0.655633 0.547452 0.504088
0.655632 0.553674 0.764805
0.65563 0.473452 1.04163
0.655629 0.302009 1.30982
0.655628 0.0410912 1.54364
0.655626 -0.300905 1.71803
0.655625 -0.709181 1.81022
0.655624 -1.16318 1.80126
0.655623 -1.63756 1.67738
0.655621 -2.10352 1.43111
0.65562 -2.53032 1.06208
0.655619 -2.887 0.577443
0.655618 -3.14417 -0.00814409
0.655616 -3.27579 -0.672874
0.655615 -3.26082 -1.38862
0.655614 -3.08472 -2.12212
0.655613 -2.7406 -2.83649
0.655611 -2.23007 -3.493
0.65561 -1.56366 -4.05301
0.655609 -0.76076 -4.48005
0.655608 0.150811 -4.74179
0.655606 1.1358 -4.81195
0.655605 2.15284 -4.67203
0.655604 3.15624 -4.31259
0.655603 4.09793 -3.73429
0.655601 4.92978 -2.94837
0.6556 5.60588 -1.97672
0.655599 6.08492 -0.851309
0.655598 0.0608841 0.0037184
0.655596 0.252158 0.067349
0.655595 0.412874 0.205071
0.655594 0.521778 0.405789
0.655593 0.561096 0.653061
0.655591 0.517769 0.926084
0.65559 0.384437 1.20097
0.655589 0.160094 1.4522
0.655587 -0.149621 1.65424
0.655586 -0.532515 1.78318
0.655585 -0.970325 1.81829
0.655584 -1.43956 1.7435
0.655582 -1.91268 1.5486
0.655581 -2.35956 1.2302
0.65558 -2.74911 0.792289
0.655579 -3.05106 0.246434
0.655577 -3.23778 -0.388454
0.655576 -3.28595 -1.08676
0.655575 -3.17817 -1.81719
0.655574 -2.90423 -2.54415
0.655572 -2.46216 -3.22947
0.655571 -1.85872 -3.83422
0.65557 -1.10968 -4.32078
0.655569 -0.23943 -4.65484
0.655567 0.71973 -4.80742
0.655566 1.72879 -4.75657
0.655565 2.74361 -4.48895
0.655564 3.71686 -4.00093
0.655562 4.60016 -3.29931
0.655561 5.34637 -2.40159
0.65556 5.912 -1.33563
0.655559 6.25946 -0.138906
0.655557 0.175009 0.0314509
0.655556 0.351167 0.13937
0.655555 0.48401 0.315597
0.655554 0.554153 0.545808
0.655552 0.546439 0.810877
0.655551 0.451039 1.08803
0.65555 0.264248 1.35223
0.655549 -0.0110697 1.57777
0.655547 -0.365412 1.73985
0.655546 -0.782958 1.81624
0.655545 -1.24227 1.78875
0.655543 -1.71732 1.64463
0.655542 -2.17887 1.37755
0.655541 -2.59603 0.988373
0.65554 -2.93796 0.48553
0.655538 -3.17573 -0.115074
0.655537 -3.28401 -0.790506
0.655536 -3.24277 -1.51168
0.655535 -3.03867 -2.24462
0.655533 -2.66622 -2.95199
0.655532 -2.1285 -3.59494
0.655531 -1.43754 -4.13506
0.65553 -0.614209 -4.53642
0.655528 0.312357 -4.76759
0.655527 1.30577 -4.8035
0.655526 2.32381 -4.62706
0.655525 3.32022 -4.23049
0.655523 4.24678 -3.6162
0.655522 5.05555 -2.79723
0.655521 5.70125 -1.79722
0.65552 6.14355 -0.649771
0.655518 0.0942036 0.0089409
0.655517 0.281932 0.0855546
0.655516 0.435344 0.234801
0.655515 0.533677 0.44463
0.655513 0.559866 0.697787
0.655512 0.501753 0.972858
0.655511 0.353009 1.24557
0.65551 0.113735 1.49029
0.655508 -0.209311 1.68165
0.655507 -0.602871 1.79615
0.655506 -1.04773 1.81376
0.655505 -1.51964 1.71931
0.655503 -1.9905 1.50368
0.655502 -2.42991 1.1647
0.655501 -2.8068 0.707629
0.6555 -3.09121 0.145288
0.655498 -3.25612 -0.502225
0.655497 -3.27911 -1.20826
0.655496 -3.14389 -1.94068
0.655495 -2.84159 -2.66336
0.655493 -2.37166 -3.33784
0.655492 -1.7424 -3.92529
0.655491 -0.971042 -4.38848
0.655489 -0.0833818 -4.69389
0.655488 0.887058 -4.81357
0.655487 1.90028 -4.72696
0.655486 2.91149 -4.42225
0.655484 3.87299 -3.89755
0.655483 4.73646 -3.16144
0.655482 5.45522 -2.23321
0.655481 5.9866 -1.1424
0.655479 0.0114409 0.000130908
0.655478 0.206733 0.0443752
0.655477 0.377105 0.164548
0.655476 0.500661 0.350997
0.655474 0.55864 0.588523
0.655473 0.536711 0.857296
0.655472 0.426028 1.13406
0.655471 0.223969 1.39356
0.655469 -0.0654795 1.61011
0.655468 -0.43172 1.75924
0.655467 -0.857927 1.8193
0.655466 -1.32181 1.77294
0.655464 -1.7967 1.60839
0.655463 -2.25297 1.32051
0.655462 -2.65961 0.91143
0.655461 -2.98597 0.390837
0.655459 -3.20361 -0.224134
0.655458 -3.28799 -0.909442
0.655457 -3.22009 -1.63509
0.655456 -2.98785 -2.3664
0.655454 -2.58715 -3.06567
0.655453 -2.02257 -3.69397
0.655452 -1.30766 -4.21317
0.655451 -0.464723 -4.58797
0.655449 0.475807 -4.78786
0.655448 1.47645 -4.78901
0.655447 2.49416 -4.57584
0.655446 3.48222 -4.1422
0.655444 4.39229 -3.49229
0.655443 5.1767 -2.64095
0.655442 5.79085 -1.61354
0.655441 6.19546 -0.445249
0.655439 0.127203 0.0164046
0.655438 0.310729 0.105828
0.655437 0.456248 0.266256
0.655436 0.543524 0.484705
0.655434 0.55624 0.74314
0.655433 0.48316 1.01957
0.655432 0.319006 1.28938
0.655431 0.0649924 1.52687
0.655429 -0.271008 1.70688
0.655428 -0.674689 1.80637
0.655427 -1.12592 1.80604
0.655426 -1.59969 1.69167
0.655424 -2.06744 1.45526
0.655423 -2.4985 1.09585
0.655422 -2.86187 0.619976
0.655421 -3.12798 0.0417182
0.655419 -3.27044 -0.617663
0.655418 -3.26777 -1.33051
0.655417 -3.10486 -2.06391
0.655415 -2.77418 -2.78121
0.655414 -2.27663 -3.44375
0.655413 -1.62204 -4.01283
0.655412 -0.829096 -4.45171
0.65541 0.0750217 -4.72766
0.655409 1.05561 -4.81388
0.655408 2.07173 -4.69116
0.655407 3.07796 -4.34931
0.655405 4.02634 -3.78817
0.655404 4.86866 -3.01812
0.655403 5.55876 -2.06021
0.655402 6.05486 -0.945651
0.6554 0.0450253 0.00203071
0.655399 0.237748 0.0594604
0.655398 0.401712 0.191613
0.655397 0.515449 0.387852
0.655395 0.560855 0.632129
0.655394 0.524459 0.903945
0.655393 0.398418 1.1796
0.655392 0.181204 1.43367
0.65539 -0.122075 1.64054
0.655389 -0.499735 1.77611
0.655388 -0.93397 1.81934
0.655387 -1.40167 1.75376
0.655385 -1.87556 1.56864
0.655384 -2.32567 1.26003
0.655383 -2.72091 0.831317
0.655382 -3.0309 0.293459
0.65538 -3.22771 -0.335196
0.655379 -3.28764 -1.02953
0.655378 -3.19275 -1.75866
0.655377 -2.93224 -2.48728
0.655375 -2.50342 -3.17734
0.655374 -1.91238 -3.78991
0.655373 -1.17415 -4.28719
0.655372 -0.312461 -4.63455
0.65537 0.640969 -4.80249
0.655369 1.64762 -4.76845
0.655368 2.66369 -4.51836
0.655367 3.64202 -4.04777
0.655365 4.53424 -3.36267
0.655364 5.29302 -2.47967
0.655363 5.87451 -1.42585
0.655362 6.24054 -0.237969
0.65536 0.159769 0.0260927
0.655359 0.338447 0.128121
0.655358 0.475497 0.299363
0.655357 0.551251 0.52592
0.655355 0.550174 0.789008
0.655354 0.461977 1.06609
0.655353 0.282447 1.33227
0.655352 0.0139172 1.56182
0.65535 -0.334632 1.72982
0.655349 -0.747863 1.81375
0.655348 -1.20475 1.79509
0.655347 -1.67958 1.66057
0.655345 -2.14333 1.40335
0.655344 -2.56517 1.02369
0.655343 -2.91419 0.529411
0.655342 -3.16123 -0.0641599
0.65534 -3.28064 -0.734625
0.655339 -3.25189 -1.45335
0.655338 -3.06108 -2.18669
0.655337 -2.70203 -2.89751
0.655335 -2.17715 -3.54701
0.655334 -1.49774 -4.09668
0.655333 -0.68399 -4.51032
0.655332 0.235602 -4.75605
0.65533 1.22517 -4.80825
0.655329 2.2429 -4.64913
0.655328 3.24279 -4.27014
0.655327 4.17669 -3.67285
0.655325 4.99655 -2.86946
0.655324 5.65679 -1.88276
0.655323 6.11661 -0.745603
0.655322 0.0784568 0.00618736
0.65532 0.267946 0.0766723
0.655319 0.424892 0.220502
0.655318 0.528293 0.426076
0.655317 0.560745 0.67652
0.655315 0.509658 0.950707
0.655314 0.368215 1.22454
0.655313 0.13599 1.47243
0.655312 -0.180787 1.66894
0.65531 -0.569363 1.79035
0.655309 -1.01097 1.8163
0.655308 -1.48171 1.73119
0.655307 -1.95375 1.52539
0.655305 -2.39681 1.19614
0.655304 -2.7798 0.748101
0.655303 -3.07261 0.193499
0.655302 -3.24793 -0.448128
0.6553 -3.2829 -1.15061
0.655299 -3.16071 -1.88222
0.655298 -2.87185 -2.60707
0.655297 -2.41509 -3.28682
0.655295 -1.798 -3.88259
0.655294 -1.03712 -4.35696
0.655293 -0.157589 -4.67605
0.655292 0.807648 -4.81138
0.65529 1.81906 -4.74175
0.655289 2.83214 -4.45462
0.655288 3.79938 -3.94726
0.655287 4.67241 -3.22742
0.655285 5.40432 -2.31353
0.655284 5.95206 -1.23436
0.655283 6.27864 -0.0281592
0.655282 0.19179 0.0379831
0.65528 0.364981 0.152385
0.655279 0.493003 0.334045
0.655278 0.556795 0.568176
0.655277 0.541631 0.835276
0.655275 0.438197 1.11231
0.655274 0.243357 1.37413
0.655273 -0.0394352 1.59503
0.655272 -0.400099 1.75037
0.65527 -0.822281 1.81822
0.655269 -1.28409 1.78084
0.655268 -1.75916 1.62599
0.655267 -2.21804 1.34795
0.655265 -2.62977 0.948268
0.655264 -2.96361 0.436023
0.655263 -3.19087 -0.172227
0.655262 -3.28664 -0.852962
0.65526 -3.23141 -1.57661
0.655259 -3.01252 -2.30883
0.655258 -2.62518 -3.01207
0.655257 -2.07328 -3.64745
0.655255 -1.36963 -4.17668
0.655254 -0.535874 -4.56416
0.655253 0.398174 -4.77896
0.655252 1.39554 -4.79663
0.65525 2.41358 -4.60087
0.655249 3.40576 -4.18478
0.655248 4.32381 -3.55169
0.655247 5.11991 -2.7156
0.655245 5.74914 -1.70104
0.655244 6.17172 -0.542467
0.655243 0.111622 0.0125915
0.655242 0.297219 0.0959716
0.65524 0.446549 0.251149
0.655239 0.539121 0.465578
0.655238 0.558259 0.72159
0.655237 0.492288 0.997462
0.655235 0.335429 1.26874
0.655234 0.0883703 1.50975
0.655233 -0.241544 1.69521
0.655232 -0.640501 1.80188
0.65523 -1.0888 1.8101
0.655229 -1.56179 1.70519
0.655228 -2.03112 1.47863
0.655227 -2.46625 1.12887
0.655225 -2.83613 0.661855
0.655224 -3.111 0.0910627
0.655223 -3.26417 -0.562794
0.655222 -3.2737 -1.27253
0.65522 -3.12394 -2.0056
0.655219 -2.80669 -2.72558
0.655218 -2.3222 -3.39391
0.655217 -1.67954 -3.97182
0.655215 -0.896723 -4.42233
0.655214 -0.00027891 -4.71233
0.655213 0.975644 -4.81447
0.655212 1.99056 -4.70889
0.65521 2.99931 -4.38463
0.655209 3.95408 -3.84071
0.655208 4.80658 -3.08667
0.655207 5.5104 -2.1427
0.655205 6.02333 -1.03925
0.655204 0.0291321 0.000849281
0.655203 0.223155 0.0520489
0.655202 0.390231 0.178564
0.6552 0.508683 0.370222
0.655199 0.560093 0.611373
0.655198 0.530578 0.881831
0.655197 0.411817 1.1581
0.655195 0.201765 1.41483
0.655194 -0.0950037 1.62637
0.655193 -0.467317 1.76844
0.655192 -0.89783 1.81971
0.65519 -1.36382 1.76326
0.655189 -1.83829 1.5879
0.655188 -2.29142 1.2891
0.655187 -2.69217 0.869648
0.655185 -3.01001 0.339904
0.655184 -3.21678 -0.282356
0.655183 -3.28835 -0.972524
0.655182 -3.20629 -1.70012
0.65518 -2.95917 -2.43016
0.655179 -2.54365 -3.12472
0.655178 -1.96509 -3.74487
0.655177 -1.23782 -4.25266
0.655175 -0.384906 -4.61311
0.655174 0.562549 -4.79627
0.655173 1.5665 -4.77895
0.655172 2.58352 -4.54636
0.65517 3.56663 -4.09326
0.655169 4.46747 -3.42476
0.655168 5.23855 -2.55667
0.655167 5.83564 -1.51523
0.655165 6.22005 -0.336464
0.655164 0.144407 0.0212285
0.655163 0.325461 0.117314
0.655162 0.466593 0.283483
0.65516 0.54786 0.506265
0.655159 0.553353 0.767228
0.655158 0.472333 1.04409
0.655157 0.300078 1.31208
0.655155 0.0383933 1.54548
0.655154 -0.304266 1.71924
0.655153 -0.713046 1.81061
0.655152 -1.16734 1.80068
0.65515 -1.64178 1.67574
0.655149 -2.10753 1.42837
0.655148 -2.53384 1.05827
0.655147 -2.88976 0.572659
0.655145 -3.14593 -0.0137369
0.655144 -3.27633 -0.679052
0.655143 -3.25998 -1.39511
0.655142 -3.08241 -2.12861
0.65514 -2.73679 -2.84264
0.655139 -2.22482 -3.49845
0.655138 -1.55709 -4.05744
0.655137 -0.753095 -4.48315
0.655136 0.159293 -4.74329
0.655134 1.14475 -4.81166
0.655133 2.16189 -4.66981
0.655132 3.16495 -4.30841
0.655131 4.10587 -3.7282
0.655129 4.93653 -2.94052
0.655128 5.61106 -1.96734
0.655127 6.08818 -0.840742
0.655126 0.0626502 0.00393797
0.655124 0.253754 0.0682582
0.655123 0.414098 0.206597
0.655122 0.522457 0.407809
0.655121 0.56109 0.655406
0.655119 0.516987 0.928554
0.655118 0.382841 1.20334
0.655117 0.157705 1.45425
0.655116 -0.152722 1.65575
0.655114 -0.536193 1.78393
0.655113 -0.974392 1.81813
0.655112 -1.44379 1.7423
0.655111 -1.91681 1.54631
0.655109 -2.36332 1.22682
0.655108 -2.75222 0.787893
0.655107 -3.05327 0.241154
0.655106 -3.23885 -0.39442
0.655104 -3.2857 -1.09315
0.655103 -3.17647 -1.82371
0.655102 -2.90104 -2.55048
0.655101 -2.45749 -3.23525
0.655099 -1.85268 -3.83912
0.655098 -1.10244 -4.32446
0.655097 -0.231249 -4.65704
0.655096 0.728534 -4.80789
0.655094 1.73784 -4.75516
0.655093 2.75251 -4.48558
0.655092 3.72518 -3.99562
0.655091 4.60746 -3.29217
0.655089 5.35225 -2.39281
0.655088 5.9161 -1.32551
0.655087 6.26147 -0.127823
0.655086 0.1767 0.032079
0.655084 0.352568 0.140652
0.655083 0.484935 0.317429
0.655082 0.554446 0.548041
0.655081 0.545988 0.813321
0.655079 0.449783 1.09047
0.655078 0.262184 1.35445
0.655077 -0.0138879 1.57953
0.655076 -0.36887 1.74094
0.655074 -0.786889 1.81647
0.655073 -1.24646 1.788
0.655072 -1.72152 1.6428
0.655071 -2.18282 1.37462
0.655069 -2.59944 0.984389
0.655068 -2.94057 0.480597
0.655067 -3.17729 -0.120782
0.655066 -3.28433 -0.796757
0.655064 -3.24169 -1.51819
0.655063 -3.03611 -2.25107
0.655062 -2.66216 -2.95804
0.655061 -2.12301 -3.60025
0.65506 -1.43077 -4.13929
0.655058 -0.606385 -4.53927
0.655057 0.320945 -4.7688
0.655056 1.31477 -4.80288
0.655055 2.33282 -4.62451
0.655053 3.32883 -4.22598
0.655052 4.25455 -3.6098
0.655051 5.06207 -2.78911
0.65505 5.70613 -1.78762
0.655048 6.14646 -0.639041
0.655047 0.0959556 0.0092792
0.655046 0.283478 0.0865741
0.655045 0.436488 0.23642
0.655043 0.534249 0.446717
0.655042 0.559735 0.700168
0.655041 0.500835 0.975328
0.65504 0.351277 1.2479
0.655038 0.111219 1.49226
0.655037 -0.21252 1.68304
0.655036 -0.606629 1.79676
0.655035 -1.05185 1.81343
0.655033 -1.52387 1.71793
0.655032 -1.99459 1.50121
0.655031 -2.43358 1.16115
0.65503 -2.80978 0.703073
0.655028 -3.09324 0.139877
0.655027 -3.25698 -0.508282
0.655026 -3.27862 -1.2147
0.655025 -3.14194 -1.9472
0.655023 -2.83815 -2.66962
0.655022 -2.36675 -3.3435
0.655021 -1.73614 -3.93
0.65502 -0.963626 -4.39193
0.655018 -0.0750722 -4.6958
0.655017 0.895932 -4.81374
0.655016 1.90934 -4.72522
0.655015 2.92032 -4.41856
0.655013 3.88116 -3.89192
0.655012 4.74355 -3.15401
0.655011 5.46082 -2.22418
0.65501 5.99037 -1.13209
0.655009 0.0132168 0.000174709
0.655007 0.20839 0.0451182
0.655006 0.378439 0.165931
0.655005 0.50149 0.352908
0.655004 0.558814 0.590805
0.655002 0.536127 0.859755
0.655001 0.424635 1.13648
0.655 0.221772 1.39571
0.654999 -0.0684148 1.61177
0.654997 -0.43527 1.7602
0.654996 -0.861917 1.81938
0.654995 -1.32602 1.77201
0.654994 -1.80088 1.60638
0.654992 -2.25685 1.3174
0.654991 -2.6629 0.907277
0.65499 -2.98842 0.385759
0.654989 -3.20498 -0.229951
0.654987 -3.28808 -0.915758
0.654986 -3.21877 -1.64161
0.654985 -2.98503 -2.37281
0.654984 -2.58284 -3.07162
0.654982 -2.01686 -3.69912
0.654981 -1.3007 -4.21719
0.65498 -0.456748 -4.59055
0.654979 0.48449 -4.78877
0.654977 1.48548 -4.78808
0.654976 2.50314 -4.57296
0.654975 3.49072 -4.13737
0.654974 4.39988 -3.48559
0.654972 5.18297 -2.63256
0.654971 5.79542 -1.60373
0.65497 6.19802 -0.434368
0.654969 0.128935 0.0168609
0.654967 0.312221 0.106955
0.654966 0.457307 0.267964
0.654965 0.543986 0.486854
0.654964 0.555981 0.745551
0.654963 0.482106 1.02203
0.654961 0.317139 1.29167
0.65496 0.0623525 1.52876
0.654959 -0.274321 1.70815
0.654958 -0.678521 1.80683
0.654956 -1.13007 1.80554
0.654955 -1.60392 1.69012
0.654954 -2.07147 1.45261
0.654953 -2.50207 1.09212
0.654951 -2.86471 0.615264
0.65495 -3.12982 0.0361824
0.654949 -3.27108 -0.623804
0.654948 -3.26705 -1.33698
0.654946 -3.10267 -2.07041
0.654945 -2.77049 -2.78739
0.654944 -2.27149 -3.44928
0.654943 -1.61557 -4.01735
0.654941 -0.821509 -4.45492
0.65494 0.0834508 -4.7293
0.654939 1.06454 -4.81373
0.654938 2.08078 -4.68909
0.654936 3.08671 -4.34528
0.654935 4.03436 -3.78222
0.654934 4.87553 -3.0104
0.654933 5.56407 -2.05095
0.654931 6.05828 -0.935165
0.65493 0.0467959 0.00219387
0.654929 0.239365 0.0603167
0.654928 0.402973 0.193094
0.654927 0.516176 0.389838
0.654925 0.560908 0.634455
0.654924 0.523741 0.906413
0.654923 0.396887 1.18199
0.654922 0.178876 1.43575
0.65492 -0.125124 1.64209
0.654919 -0.503374 1.77692
0.654918 -0.938015 1.81926
0.654917 -1.40589 1.75265
0.654915 -1.87971 1.56645
0.654914 -2.32946 1.25674
0.654913 -2.72408 0.826998
0.654912 -3.03318 0.288243
0.65491 -3.22888 -0.341115
0.654909 -3.2875 -1.0359
0.654908 -3.19118 -1.76518
0.654907 -2.92917 -2.49363
0.654905 -2.49887 -3.18318
0.654904 -1.90644 -3.79489
0.654903 -1.16699 -4.29099
0.654902 -0.304344 -4.63687
0.6549 0.649737 -4.8031
0.654899 1.65667 -4.76719
0.654898 2.67261 -4.51515
0.654897 3.6504 -4.04262
0.654895 4.54163 -3.35566
0.654894 5.29903 -2.47101
0.654893 5.87876 -1.41583
0.654892 6.24272 -0.226948
0.654891 0.161475 0.0266658
0.654889 0.339879 0.129354
0.654888 0.476466 0.301156
0.654887 0.551599 0.528127
0.654886 0.549785 0.791442
0.654884 0.460786 1.06854
0.654883 0.280446 1.33451
0.654882 0.0111555 1.56362
0.654881 -0.338045 1.73096
0.654879 -0.751763 1.81406
0.654878 -1.20892 1.79442
0.654877 -1.6838 1.65883
0.654876 -2.14731 1.40051
0.654874 -2.56863 1.01979
0.654873 -2.91687 0.524548
0.654872 -3.16289 -0.0698144
0.654871 -3.28106 -0.740842
0.654869 -3.25093 -1.45985
0.654868 -3.05863 -2.19315
0.654867 -2.69809 -2.9036
0.654866 -2.17177 -3.55239
0.654864 -1.49107 -4.10101
0.654863 -0.67624 -4.51328
0.654862 0.24414 -4.7574
0.654861 1.23415 -4.80779
0.65486 2.25193 -4.64674
0.654858 3.25145 -4.26579
0.654857 4.18454 -3.6666
0.654856 5.00318 -2.86146
0.654855 5.66181 -1.87327
0.654853 6.11969 -0.734948
0.654852 0.0802163 0.00646951
0.654851 0.269517 0.0776398
0.65485 0.426075 0.222077
0.654848 0.528916 0.428131
0.654847 0.560673 0.678885
0.654846 0.508805 0.953178
0.654845 0.366547 1.22689
0.654843 0.133534 1.47444
0.654842 -0.183946 1.67038
0.654841 -0.573083 1.79102
0.65484 -1.01506 1.81605
0.654838 -1.48594 1.7299
0.654837 -1.95786 1.52301
0.654836 -2.40052 1.19267
0.654835 -2.78284 0.74362
0.654833 -3.07473 0.188149
0.654832 -3.24889 -0.454143
0.654831 -3.28253 -1.15703
0.65483 -3.15889 -1.88874
0.654829 -2.86853 -2.61336
0.654827 -2.41029 -3.29253
0.654826 -1.79184 -3.88739
0.654825 -1.02979 -4.36053
0.654824 -0.149339 -4.67809
0.654822 0.816491 -4.81169
0.654821 1.82812 -4.74017
0.65482 2.84101 -4.45108
0.654819 3.80762 -3.94178
0.654817 4.67959 -3.22013
0.654816 5.41006 -2.30463
0.654815 5.95598 -1.22414
0.654814 6.28045 -0.0170112
0.654812 0.193464 0.0386719
0.654811 0.366347 0.153721
0.65481 0.493878 0.33592
0.654809 0.557025 0.570435
0.654807 0.54111 0.837729
0.654806 0.436869 1.11474
0.654805 0.241222 1.37631
0.654804 -0.0423154 1.59673
0.654803 -0.403606 1.75139
0.654801 -0.826244 1.81838
0.6548 -1.28829 1.78
0.654799 -1.76336 1.62406
0.654798 -2.22196 1.34493
0.654796 -2.63312 0.944195
0.654795 -2.96614 0.431013
0.654794 -3.19233 -0.177993
0.654793 -3.28683 -0.859248
0.654791 -3.2302 -1.58313
0.65479 -3.00982 -2.31526
0.654789 -2.62099 -3.01807
0.654788 -2.06767 -3.65267
0.654786 -1.36276 -4.1808
0.654785 -0.52797 -4.56687
0.654784 0.406813 -4.78001
0.654783 1.40456 -4.79585
0.654781 2.42257 -4.59815
0.65478 3.41431 -4.1801
0.654779 4.33148 -3.54513
0.654778 5.1263 -2.70733
0.654777 5.75386 -1.69133
0.654775 6.17444 -0.531655
0.654774 0.113364 0.012992
0.654773 0.298738 0.0970482
0.654772 0.447649 0.252815
0.65477 0.539635 0.467698
0.654769 0.558061 0.723988
0.654768 0.491298 0.999929
0.654767 0.333626 1.27105
0.654765 0.085789 1.51167
0.654764 -0.244808 1.69653
0.654763 -0.644299 1.80241
0.654762 -1.09293 1.80968
0.65476 -1.56602 1.70372
0.654759 -2.03518 1.47606
0.654758 -2.46987 1.12523
0.654757 -2.83903 0.657217
0.654755 -3.11293 0.0855852
0.654754 -3.26491 -0.568896
0.654753 -3.27309 -1.27899
0.654752 -3.12186 -2.0121
0.654751 -2.80312 -2.7318
0.654749 -2.31717 -3.3995
0.654748 -1.67317 -3.97643
0.654747 -0.889216 -4.42566
0.654746 0.00809471 -4.7141
0.654744 0.984551 -4.81447
0.654743 1.99961 -4.70698
0.654742 3.0081 -4.38076
0.654741 3.96217 -3.83492
0.654739 4.81355 -3.07908
0.654738 5.51585 -2.13355
0.654737 6.02692 -1.02885
0.654736 0.030906 0.000955944
0.654734 0.224791 0.0528518
0.654733 0.391527 0.179999
0.654732 0.509459 0.372173
0.654731 0.560203 0.613679
0.654729 0.529923 0.884296
0.654728 0.410352 1.16051
0.654727 0.199499 1.41695
0.654726 -0.0979992 1.62797
0.654725 -0.470914 1.76932
0.654723 -0.90185 1.8197
0.654722 -1.36803 1.76224
0.654721 -1.84245 1.58579
0.65472 -2.29526 1.2859
0.654718 -2.6954 0.865408
0.654717 -3.01238 0.334753
0.654716 -3.21804 -0.288228
0.654715 -3.28832 -0.97887
0.654713 -3.20483 -1.70665
0.654712 -2.95622 -2.43654
0.654711 -2.53921 -3.13061
0.65471 -1.95926 -3.74993
0.654708 -1.23076 -4.25656
0.654707 -0.376855 -4.61556
0.654706 0.571278 -4.79702
0.654705 1.57555 -4.77785
0.654704 2.59247 -4.5433
0.654702 3.57507 -4.08825
0.654701 4.47496 -3.4179
0.6547 5.24468 -2.54813
0.654699 5.84004 -1.5053
0.654697 6.22241 -0.325508
0.654696 0.146126 0.0217465
0.654695 0.326922 0.118498
0.654694 0.467605 0.285236
0.654692 0.548263 0.508445
0.654691 0.553026 0.769652
0.65469 0.471207 1.04655
0.654689 0.29814 1.31435
0.654687 0.0356889 1.54732
0.654686 -0.307632 1.72045
0.654685 -0.716915 1.811
0.654684 -1.17151 1.80009
0.654683 -1.646 1.67408
0.654681 -2.11153 1.42562
0.65468 -2.53736 1.05445
0.654679 -2.89252 0.567867
0.654678 -3.14768 -0.0193359
0.654676 -3.27686 -0.685234
0.654675 -3.25913 -1.4016
0.654674 -3.08008 -2.13509
0.654673 -2.73297 -2.84877
0.654671 -2.21955 -3.5039
0.65467 -1.55051 -4.06186
0.654669 -0.745422 -4.48623
0.654668 0.167781 -4.74477
0.654666 1.15371 -4.81134
0.654665 2.17093 -4.66758
0.654664 3.17365 -4.30421
0.654663 4.11381 -3.72209
0.654662 4.94328 -2.93266
0.65466 5.61622 -1.95796
0.654659 6.09143 -0.830166
0.654658 0.0644158 0.00416383
0.654657 0.255347 0.0691733
0.654655 0.415319 0.208128
0.654654 0.52313 0.409831
0.654653 0.561078 0.657753
0.654652 0.516198 0.931025
0.65465 0.381239 1.20571
0.654649 0.15531 1.45629
0.654648 -0.155829 1.65724
0.654647 -0.539875 1.78468
0.654645 -0.978462 1.81796
0.654644 -1.44802 1.7411
0.654643 -1.92094 1.54402
0.654642 -2.36707 1.22344
0.654641 -2.75532 0.783489
0.654639 -3.05546 0.235867
0.654638 -3.2399 -0.40039
0.654637 -3.28544 -1.09955
0.654636 -3.17477 -1.83024
0.654634 -2.89784 -2.55681
0.654633 -2.45281 -3.24103
0.654632 -1.84663 -3.844
0.654631 -1.0952 -4.32814
0.654629 -0.223061 -4.65921
0.654628 0.737343 -4.80834
0.654627 1.7469 -4.75374
0.654626 2.76141 -4.4822
0.654624 3.73348 -3.99029
0.654623 4.61474 -3.28501
0.654622 5.35811 -2.38402
0.654621 5.92018 -1.31539
0.65462 6.26346 -0.116734
0.654618 0.17839 0.0327132
0.654617 0.353967 0.141939
0.654616 0.485855 0.319265
0.654615 0.554732 0.550275
0.654613 0.545529 0.815766
0.654612 0.44852 1.09291
0.654611 0.260112 1.35665
0.65461 -0.0167124 1.58128
0.654608 -0.372334 1.74202
0.654607 -0.790824 1.8167
0.654606 -1.25065 1.78724
0.654605 -1.72573 1.64097
0.654604 -2.18676 1.37168
0.654602 -2.60285 0.980396
0.654601 -2.94318 0.475656
0.6546 -3.17885 -0.126497
0.654599 -3.28463 -0.803011
0.654597 -3.24059 -1.52471
0.654596 -3.03353 -2.25752
0.654595 -2.65809 -2.96409
0.654594 -2.11751 -3.60554
0.654592 -1.42399 -4.1435
0.654591 -0.598553 -4.5421
0.65459 0.329537 -4.77
0.654589 1.32377 -4.80225
0.654587 2.34184 -4.62194
0.654586 3.33743 -4.22145
0.654585 4.26231 -3.60338
0.654584 5.06857 -2.78097
0.654583 5.71099 -1.77801
0.654581 6.14935 -0.628302
0.65458 0.0977068 0.00962375
0.654579 0.285022 0.0875994
0.654578 0.437628 0.238044
0.654576 0.534815 0.448807
0.654575 0.559597 0.702551
0.654574 0.499911 0.977797
0.654573 0.349538 1.25024
0.654571 0.108697 1.49423
0.65457 -0.215735 1.68442
0.654569 -0.610391 1.79736
0.654568 -1.05596 1.81309
0.654567 -1.5281 1.71655
0.654565 -1.99868 1.49873
0.654564 -2.43725 1.15759
0.654563 -2.81274 0.698509
0.654562 -3.09526 0.134459
0.65456 -3.25783 -0.514344
0.654559 -3.27812 -1.22114
0.654558 -3.13999 -1.95372
0.654557 -2.83469 -2.67588
0.654555 -2.36183 -3.34915
0.654554 -1.72987 -3.9347
0.654553 -0.9562 -4.39537
0.654552 -0.0667561 -4.69771
0.65455 0.904809 -4.81388
0.654549 1.9184 -4.72347
0.654548 2.92914 -4.41484
0.654547 3.88933 -3.88627
0.654546 4.75062 -3.14656
0.654544 5.46641 -2.21515
0.654543 5.99412 -1.12177
0.654542 0.0149926 0.00022482
0.654541 0.210045 0.0458673
0.654539 0.379769 0.167319
0.654538 0.502313 0.354823
0.654537 0.558982 0.593089
0.654536 0.535536 0.862215
0.654534 0.423234 1.1389
0.654533 0.219568 1.39785
0.654532 -0.0713562 1.61342
0.654531 -0.438826 1.76115
0.65453 -0.865911 1.81945
0.654528 -1.33023 1.77107
0.654527 -1.80506 1.60436
0.654526 -2.26072 1.31428
0.654525 -2.66619 0.903115
0.654523 -2.99087 0.380675
0.654522 -3.20634 -0.235774
0.654521 -3.28815 -0.922077
0.65452 -3.21743 -1.64814
0.654518 -2.9822 -2.37922
0.654517 -2.57852 -3.07757
0.654516 -2.01113 -3.70426
0.654515 -1.29373 -4.22119
0.654514 -0.448766 -4.59312
0.654512 0.493177 -4.78967
0.654511 1.49451 -4.78713
0.65451 2.51212 -4.57006
0.654509 3.49921 -4.13251
0.654507 4.40745 -3.47887
0.654506 5.18922 -2.62415
0.654505 5.79997 -1.5939
0.654504 6.20055 -0.423479
0.654502 0.130666 0.0173233
0.654501 0.31371 0.108088
0.6545 0.458361 0.269677
0.654499 0.544442 0.489007
0.654498 0.555715 0.747963
0.654496 0.481045 1.02449
0.654495 0.315264 1.29396
0.654494 0.0597061 1.53064
0.654493 -0.27764 1.70941
0.654491 -0.682357 1.80728
0.65449 -1.13422 1.80504
0.654489 -1.60814 1.68855
0.654488 -2.07551 1.44994
0.654486 -2.50563 1.08838
0.654485 -2.86753 0.610544
0.654484 -3.13166 0.0306402
0.654483 -3.27171 -0.629949
0.654482 -3.26631 -1.34346
0.65448 -3.10046 -2.0769
0.654479 -2.76678 -2.79357
0.654478 -2.26633 -3.45479
0.654477 -1.60909 -4.02187
0.654475 -0.813914 -4.45812
0.654474 0.0918858 -4.73092
0.654473 1.07348 -4.81356
0.654472 2.08983 -4.68701
0.65447 3.09545 -4.34124
0.654469 4.04237 -3.77626
0.654468 4.88238 -3.00267
0.654467 5.56937 -2.04167
0.654466 6.06169 -0.92467
0.654464 0.0485662 0.00236333
0.654463 0.240979 0.0611789
0.654462 0.40423 0.19458
0.654461 0.516899 0.391827
0.654459 0.560954 0.636783
0.654458 0.523016 0.908882
0.654457 0.395349 1.18438
0.654456 0.176542 1.43783
0.654454 -0.128178 1.64363
0.654453 -0.507016 1.77774
0.654452 -0.942061 1.81917
0.654451 -1.41012 1.75154
0.65445 -1.88386 1.56424
0.654448 -2.33326 1.25344
0.654447 -2.72725 0.822671
0.654446 -3.03546 0.283019
0.654445 -3.23003 -0.34704
0.654443 -3.28735 -1.04228
0.654442 -3.18959 -1.77171
0.654441 -2.92608 -2.49999
0.65444 -2.4943 -3.18901
0.654438 -1.90049 -3.79986
0.654437 -1.15983 -4.29477
0.654436 -0.29622 -4.63918
0.654435 0.658509 -4.8037
0.654434 1.66572 -4.76592
0.654432 2.68154 -4.51192
0.654431 3.65876 -4.03744
0.65443 4.54902 -3.34864
0.654429 5.30502 -2.46235
0.654427 5.88299 -1.4058
0.654426 6.24489 -0.21592
0.654425 0.163179 0.0272452
0.654424 0.341307 0.130593
0.654422 0.47743 0.302954
0.654421 0.551941 0.530336
0.65442 0.549389 0.793878
0.654419 0.459588 1.07099
0.654418 0.278437 1.33675
0.654416 0.00838755 1.56542
0.654415 -0.341463 1.7321
0.654414 -0.755667 1.81436
0.654413 -1.21311 1.79374
0.654411 -1.68801 1.65708
0.65441 -2.15128 1.39766
0.654409 -2.57209 1.01587
0.654408 -2.91955 0.519677
0.654406 -3.16454 -0.0754749
0.654405 -3.28147 -0.747063
0.654404 -3.24995 -1.46635
0.654403 -3.05617 -2.19962
0.654402 -2.69414 -2.9097
0.6544 -2.16638 -3.55776
0.654399 -1.48439 -4.10532
0.654398 -0.668482 -4.51623
0.654397 0.252685 -4.75873
0.654395 1.24313 -4.80731
0.654394 2.26096 -4.64433
0.654393 3.2601 -4.26142
0.654392 4.19239 -3.66033
0.654391 5.0098 -2.85345
0.654389 5.66682 -1.86376
0.654388 6.12275 -0.724285
0.654387 0.0819749 0.00675794
0.654386 0.271084 0.0786132
0.654384 0.427253 0.223658
0.654383 0.529533 0.43019
0.654382 0.560595 0.681251
0.654381 0.507945 0.955648
0.654379 0.364873 1.22924
0.654378 0.131072 1.47645
0.654377 -0.18711 1.67181
0.654376 -0.576808 1.79169
0.654375 -1.01915 1.81579
0.654373 -1.49017 1.7286
0.654372 -1.96197 1.52062
0.654371 -2.40423 1.18919
0.65437 -2.78587 0.739132
0.654368 -3.07683 0.182792
0.654367 -3.24984 -0.460162
0.654366 -3.28214 -1.16345
0.654365 -3.15705 -1.89526
0.654364 -2.86519 -2.61965
0.654362 -2.40549 -3.29825
0.654361 -1.78568 -3.89218
0.65436 -1.02245 -4.36408
0.654359 -0.141083 -4.68013
0.654357 0.825337 -4.81199
0.654356 1.83718 -4.73857
0.654355 2.84987 -4.44752
0.654354 3.81585 -3.93629
0.654352 4.68677 -3.21281
0.654351 5.41578 -2.29571
0.65435 5.95988 -1.21391
0.654349 6.28225 -0.00585677
0.654348 0.195136 0.0393667
0.654346 0.36771 0.155062
0.654345 0.494747 0.337798
0.654344 0.55725 0.572697
0.654343 0.540582 0.840183
0.654341 0.435533 1.11717
0.65434 0.239081 1.37849
0.654339 -0.0452019 1.59843
0.654338 -0.407118 1.7524
0.654336 -0.830211 1.81852
0.654335 -1.2925 1.77914
0.654334 -1.76755 1.62213
0.654333 -2.22586 1.3419
0.654332 -2.63647 0.940113
0.65433 -2.96866 0.425996
0.654329 -3.19379 -0.183765
0.654328 -3.28702 -0.865537
0.654327 -3.22898 -1.58965
0.654325 -3.00711 -2.32169
0.654324 -2.61679 -3.02407
0.654323 -2.06205 -3.65788
0.654322 -1.35588 -4.1849
0.654321 -0.520057 -4.56957
0.654319 0.415456 -4.78105
0.654318 1.41358 -4.79505
0.654317 2.43157 -4.59541
0.654316 3.42286 -4.1754
0.654314 4.33915 -3.53855
0.654313 5.13267 -2.69905
0.654312 5.75856 -1.6816
0.654311 6.17715 -0.520836
0.65431 0.115105 0.0133987
0.654308 0.300253 0.0981306
0.654307 0.448744 0.254486
0.654306 0.540144 0.469822
0.654305 0.557856 0.726387
0.654303 0.490302 1.0024
0.654302 0.331816 1.27336
0.654301 0.0832012 1.5136
0.6543 -0.248078 1.69785
0.654298 -0.6481 1.80293
0.654297 -1.09707 1.80925
0.654296 -1.57025 1.70224
0.654295 -2.03924 1.47348
0.654294 -2.47348 1.12157
0.654292 -2.84192 0.652571
0.654291 -3.11485 0.0801012
0.65429 -3.26565 -0.575003
0.654289 -3.27247 -1.28545
0.654287 -3.11977 -2.01861
0.654286 -2.79953 -2.73802
0.654285 -2.31212 -3.40508
0.654284 -1.66679 -3.98104
0.654283 -0.8817 -4.42897
0.654281 0.0164746 -4.71585
0.65428 0.99346 -4.81445
0.654279 2.00867 -4.70505
0.654278 3.01688 -4.37687
0.654276 3.97025 -3.82911
0.654275 4.82051 -3.07148
0.654274 5.52129 -2.12439
0.654273 6.03049 -1.01844
0.654271 0.0326796 0.00106891
0.65427 0.226425 0.0536606
0.654269 0.392819 0.181439
0.654268 0.510229 0.374128
0.654267 0.560308 0.615987
0.654265 0.529262 0.886761
0.654264 0.408879 1.16291
0.654263 0.197226 1.41906
0.654262 -0.101001 1.62957
0.65426 -0.474516 1.7702
0.654259 -0.905873 1.81968
0.654258 -1.37225 1.76121
0.654257 -1.84661 1.58368
0.654256 -2.29909 1.28268
0.654254 -2.69863 0.861159
0.654253 -3.01473 0.329595
0.654252 -3.21929 -0.294106
0.654251 -3.28827 -0.98522
0.654249 -3.20336 -1.71318
0.654248 -2.95326 -2.44292
0.654247 -2.53477 -3.1365
0.654246 -1.95341 -3.75498
0.654245 -1.22369 -4.26044
0.654243 -0.368798 -4.61799
0.654242 0.580011 -4.79776
0.654241 1.58459 -4.77673
0.65424 2.60142 -4.54023
0.654238 3.5835 -4.08323
0.654237 4.48243 -3.41102
0.654236 5.2508 -2.53959
0.654235 5.84443 -1.49537
0.654234 6.22476 -0.314544
0.654232 0.147844 0.0222706
0.654231 0.32838 0.119687
0.65423 0.468612 0.286994
0.654229 0.548659 0.510629
0.654227 0.552692 0.772078
0.654226 0.470073 1.049
0.654225 0.296195 1.31661
0.654224 0.0329781 1.54916
0.654222 -0.311003 1.72165
0.654221 -0.720788 1.81137
0.65422 -1.17567 1.7995
0.654219 -1.65022 1.67242
0.654218 -2.11554 1.42285
0.654216 -2.54087 1.05062
0.654215 -2.89527 0.563067
0.654214 -3.14941 -0.0249412
0.654213 -3.27737 -0.691421
0.654211 -3.25827 -1.40809
0.65421 -3.07774 -2.14157
0.654209 -2.72913 -2.85491
0.654208 -2.21427 -3.50934
0.654207 -1.54393 -4.06627
0.654205 -0.73774 -4.4893
0.654204 0.176275 -4.74624
0.654203 1.16267 -4.81101
0.654202 2.17997 -4.66532
0.6542 3.18235 -4.29999
0.654199 4.12173 -3.71597
0.654198 4.95001 -2.92477
0.654197 5.62137 -1.94856
0.654196 6.09465 -0.819581
0.654194 0.0661807 0.00439598
0.654193 0.256937 0.0700943
0.654192 0.416535 0.209664
0.654191 0.523798 0.411858
0.654189 0.561059 0.660102
0.654188 0.515402 0.933495
0.654187 0.379629 1.20808
0.654186 0.152908 1.45833
0.654185 -0.158942 1.65873
0.654183 -0.543562 1.78542
0.654182 -0.982534 1.81778
0.654181 -1.45225 1.73989
0.65418 -1.92507 1.54171
0.654178 -2.37082 1.22004
0.654177 -2.75842 0.779076
0.654176 -3.05765 0.230573
0.654175 -3.24095 -0.406366
0.654174 -3.28516 -1.10595
0.654172 -3.17305 -1.83677
0.654171 -2.89463 -2.56313
0.65417 -2.44812 -3.2468
0.654169 -1.84056 -3.84888
0.654167 -1.08794 -4.3318
0.654166 -0.214867 -4.66138
0.654165 0.746155 -4.80878
0.654164 1.75596 -4.75229
0.654163 2.7703 -4.4788
0.654161 3.74178 -3.98495
0.65416 4.62202 -3.27783
0.654159 5.36397 -2.37522
0.654158 5.92424 -1.30525
