ply
format ascii 1.0 
element vertex 1740
property float32 x
property float32 y
property float32 z
end_header
0.0319755 -3.28106 -0.740842
0.0319752 -3.25093 -1.45985
0.0319748 -3.05863 -2.19315
0.0319745 -2.69809 -2.9036
0.0319742 -2.17177 -3.55239
0.0319739 -1.49107 -4.10101
0.0319735 -0.67624 -4.51328
0.0319732 0.24414 -4.7574
0.0319729 1.23415 -4.80779
0.0319726 2.25193 -4.64674
0.0319722 3.25145 -4.26579
0.0319719 4.18454 -3.6666
0.0319716 5.00318 -2.86146
0.0319712 5.66181 -1.87327
0.0319709 6.11969 -0.734948
0.0319706 0.0802163 0.00646951
0.0319703 0.269517 0.0776398
0.0319699 0.426075 0.222077
0.0319696 0.528916 0.428131
0.0319693 0.560673 0.678885
0.031969 0.508805 0.953178
0.0319686 0.366547 1.22689
0.0319683 0.133534 1.47444
0.031968 -0.183946 1.67038
0.0319676 -0.573083 1.79102
0.0319673 -1.01506 1.81605
0.031967 -1.48594 1.7299
0.0319667 -1.95786 1.52301
0.0319663 -2.40052 1.19267
0.031966 -2.78284 0.74362
0.0319657 -3.07473 0.188149
0.0319654 -3.24889 -0.454143
0.031965 -3.28253 -1.15703
0.0319647 -3.15889 -1.88874
0.0319644 -2.86853 -2.61336
0.0319641 -2.41029 -3.29253
0.0319637 -1.79184 -3.88739
0.0319634 -1.02979 -4.36053
0.0319631 -0.149339 -4.67809
0.0319628 0.816491 -4.81169
0.0319624 1.82812 -4.74017
0.0319621 2.84101 -4.45108
0.0319618 3.80762 -3.94178
0.0319614 4.67959 -3.22013
0.0319611 5.41006 -2.30463
0.0319608 5.95598 -1.22414
0.0319605 6.28045 -0.0170112
0.0319601 0.193464 0.0386719
0.0319598 0.366347 0.153721
0.0319595 0.493878 0.33592
0.0319592 0.557025 0.570435
0.0319588 0.54111 0.837729
0.0319585 0.436869 1.11474
0.0319582 0.241222 1.37631
0.0319579 -0.0423154 1.59673
0.0319575 -0.403606 1.75139
0.0319572 -0.826244 1.81838
0.0319569 -1.28829 1.78
0.0319565 -1.76336 1.62406
0.0319562 -2.22196 1.34493
0.0319559 -2.63312 0.944195
0.0319556 -2.96614 0.431013
0.0319552 -3.19233 -0.177993
0.0319549 -3.28683 -0.859248
0.0319546 -3.2302 -1.58313
0.0319543 -3.00982 -2.31526
0.0319539 -2.62099 -3.01807
0.0319536 -2.06767 -3.65267
0.0319533 -1.36276 -4.1808
0.031953 -0.52797 -4.56687
0.0319526 0.406813 -4.78001
0.0319523 1.40456 -4.79585
0.031952 2.42257 -4.59815
0.0319517 3.41431 -4.1801
0.0319513 4.33148 -3.54513
0.031951 5.1263 -2.70733
0.0319507 5.75386 -1.69133
0.0319503 6.17444 -0.531655
0.03195 0.113364 0.012992
0.0319497 0.298738 0.0970482
0.0319494 0.447649 0.252815
0.031949 0.539635 0.467698
0.0319487 0.558061 0.723988
0.0319484 0.491298 0.999929
0.0319481 0.333626 1.27105
0.0319477 0.085789 1.51167
0.0319474 -0.244808 1.69653
0.0319471 -0.644299 1.80241
0.0319468 -1.09293 1.80968
0.0319464 -1.56602 1.70372
0.0319461 -2.03518 1.47606
0.0319458 -2.46987 1.12523
0.0319455 -2.83903 0.657217
0.0319451 -3.11293 0.0855852
0.0319448 -3.26491 -0.568896
0.0319445 -3.27309 -1.27899
0.0319442 -3.12186 -2.0121
0.0319438 -2.80312 -2.7318
0.0319435 -2.31717 -3.3995
0.0319432 -1.67317 -3.97643
0.0319429 -0.889216 -4.42566
0.0319425 0.00809471 -4.7141
0.0319422 0.984551 -4.81447
0.0319419 1.99961 -4.70698
0.0319415 3.0081 -4.38076
0.0319412 3.96217 -3.83492
0.0319409 4.81355 -3.07908
0.0319406 5.51585 -2.13355
0.0319402 6.02692 -1.02885
0.0319399 0.030906 0.000955944
0.0319396 0.224791 0.0528518
0.0319393 0.391527 0.179999
0.0319389 0.509459 0.372173
0.0319386 0.560203 0.613679
0.0319383 0.529923 0.884296
0.031938 0.410352 1.16051
0.0319376 0.199499 1.41695
0.0319373 -0.0979992 1.62797
0.031937 -0.470914 1.76932
0.0319367 -0.90185 1.8197
0.0319363 -1.36803 1.76224
0.031936 -1.84245 1.58579
0.0319357 -2.29526 1.2859
0.0319354 -2.6954 0.865408
0.031935 -3.01238 0.334753
0.0319347 -3.21804 -0.288228
0.0319344 -3.28832 -0.97887
0.0319341 -3.20483 -1.70665
0.0319337 -2.95622 -2.43654
0.0319334 -2.53921 -3.13061
0.0319331 -1.95926 -3.74993
0.0319328 -1.23076 -4.25656
0.0319324 -0.376855 -4.61556
0.0319321 0.571278 -4.79702
0.0319318 1.57555 -4.77785
0.0319314 2.59247 -4.5433
0.0319311 3.57507 -4.08825
0.0319308 4.47496 -3.4179
0.0319305 5.24468 -2.54813
0.0319301 5.84004 -1.5053
0.0319298 6.22241 -0.325508
0.0319295 0.146126 0.0217465
0.0319292 0.326922 0.118498
0.0319288 0.467605 0.285236
0.0319285 0.548263 0.508445
0.0319282 0.553026 0.769652
0.0319279 0.471207 1.04655
0.0319275 0.29814 1.31435
0.0319272 0.0356889 1.54732
0.0319269 -0.307632 1.72045
0.0319266 -0.716915 1.811
0.0319262 -1.17151 1.80009
0.0319259 -1.646 1.67408
0.0319256 -2.11153 1.42562
0.0319253 -2.53736 1.05445
0.0319249 -2.89252 0.567867
0.0319246 -3.14768 -0.0193359
0.0319243 -3.27686 -0.685234
0.031924 -3.25913 -1.4016
0.0319236 -3.08008 -2.13509
0.0319233 -2.73297 -2.84877
0.031923 -2.21955 -3.5039
0.0319227 -1.55051 -4.06186
0.0319223 -0.745422 -4.48623
0.031922 0.167781 -4.74477
0.0319217 1.15371 -4.81134
0.0319214 2.17093 -4.66758
0.031921 3.17365 -4.30421
0.0319207 4.11381 -3.72209
0.0319204 4.94328 -2.93266
0.0319201 5.61622 -1.95796
0.0319197 6.09143 -0.830166
0.0319194 0.0644158 0.00416383
0.0319191 0.255347 0.0691733
0.0319188 0.415319 0.208128
0.0319184 0.52313 0.409831
0.0319181 0.561078 0.657753
0.0319178 0.516198 0.931025
0.0319175 0.381239 1.20571
0.0319171 0.15531 1.45629
0.0319168 -0.155829 1.65724
0.0319165 -0.539875 1.78468
0.0319162 -0.978462 1.81796
0.0319158 -1.44802 1.7411
0.0319155 -1.92094 1.54402
0.0319152 -2.36707 1.22344
0.0319149 -2.75532 0.783489
0.0319145 -3.05546 0.235867
0.0319142 -3.2399 -0.40039
0.0319139 -3.28544 -1.09955
0.0319136 -3.17477 -1.83024
0.0319132 -2.89784 -2.55681
0.0319129 -2.45281 -3.24103
0.0319126 -1.84663 -3.844
0.0319123 -1.0952 -4.32814
0.0319119 -0.223061 -4.65921
0.0319116 0.737343 -4.80834
0.0319113 1.7469 -4.75374
0.031911 2.76141 -4.4822
0.0319106 3.73348 -3.99029
0.0319103 4.61474 -3.28501
0.03191 5.35811 -2.38402
0.0319097 5.92018 -1.31539
0.0319093 6.26346 -0.116734
0.031909 0.17839 0.0327132
0.0319087 0.353967 0.141939
0.0319084 0.485855 0.319265
0.031908 0.554732 0.550275
0.0319077 0.545529 0.815766
0.0319074 0.44852 1.09291
0.0319071 0.260112 1.35665
0.0319067 -0.0167124 1.58128
0.0319064 -0.372334 1.74202
0.0319061 -0.790824 1.8167
0.0319058 -1.25065 1.78724
0.0319054 -1.72573 1.64097
0.0319051 -2.18676 1.37168
0.0319048 -2.60285 0.980396
0.0319045 -2.94318 0.475656
0.0319041 -3.17885 -0.126497
0.0319038 -3.28463 -0.803011
0.0319035 -3.24059 -1.52471
0.0319032 -3.03353 -2.25752
0.0319028 -2.65809 -2.96409
0.0319025 -2.11751 -3.60554
0.0319022 -1.42399 -4.1435
0.0319019 -0.598553 -4.5421
0.0319015 0.329537 -4.77
0.0319012 1.32377 -4.80225
0.0319009 2.34184 -4.62194
0.0319006 3.33743 -4.22145
0.0319002 4.26231 -3.60338
0.0318999 5.06857 -2.78097
0.0318996 5.71099 -1.77801
0.0318993 6.14935 -0.628302
0.0318989 0.0977068 0.00962375
0.0318986 0.285022 0.0875994
0.0318983 0.437628 0.238044
0.031898 0.534815 0.448807
0.0318976 0.559597 0.702551
0.0318973 0.499911 0.977797
0.031897 0.349538 1.25024
0.0318967 0.108697 1.49423
0.0318963 -0.215735 1.68442
0.031896 -0.610391 1.79736
0.0318957 -1.05596 1.81309
0.0318954 -1.5281 1.71655
0.031895 -1.99868 1.49873
0.0318947 -2.43725 1.15759
0.0318944 -2.81274 0.698509
0.0318941 -3.09526 0.134459
0.0318937 -3.25783 -0.514344
0.0318934 -3.27812 -1.22114
0.0318931 -3.13999 -1.95372
0.0318928 -2.83469 -2.67588
0.0318925 -2.36183 -3.34915
0.0318921 -1.72987 -3.9347
0.0318918 -0.9562 -4.39537
0.0318915 -0.0667561 -4.69771
0.0318912 0.904809 -4.81388
0.0318908 1.9184 -4.72347
0.0318905 2.92914 -4.41484
0.0318902 3.88933 -3.88627
0.0318899 4.75062 -3.14656
0.0318895 5.46641 -2.21515
0.0318892 5.99412 -1.12177
0.0318889 0.0149926 0.00022482
0.0318886 0.210045 0.0458673
0.0318882 0.379769 0.167319
0.0318879 0.502313 0.354823
0.0318876 0.558982 0.593089
0.0318873 0.535536 0.862215
0.0318869 0.423234 1.1389
0.0318866 0.219568 1.39785
0.0318863 -0.0713562 1.61342
0.031886 -0.438826 1.76115
0.0318856 -0.865911 1.81945
0.0318853 -1.33023 1.77107
0.031885 -1.80506 1.60436
0.0318847 -2.26072 1.31428
0.0318843 -2.66619 0.903115
0.031884 -2.99087 0.380675
0.0318837 -3.20634 -0.235774
0.0318834 -3.28815 -0.922077
0.031883 -3.21743 -1.64814
0.0318827 -2.9822 -2.37922
0.0318824 -2.57852 -3.07757
0.0318821 -2.01113 -3.70426
0.0318818 -1.29373 -4.22119
0.0318814 -0.448766 -4.59312
0.0318811 0.493177 -4.78967
0.0318808 1.49451 -4.78713
0.0318805 2.51212 -4.57006
0.0318801 3.49921 -4.13251
0.0318798 4.40745 -3.47887
0.0318795 5.18922 -2.62415
0.0318792 5.79997 -1.5939
0.0318788 6.20055 -0.423479
0.0318785 0.130666 0.0173233
0.0318782 0.31371 0.108088
0.0318779 0.458361 0.269677
0.0318775 0.544442 0.489007
0.0318772 0.555715 0.747963
0.0318769 0.481045 1.02449
0.0318766 0.315264 1.29396
0.0318762 0.0597061 1.53064
0.0318759 -0.27764 1.70941
0.0318756 -0.682357 1.80728
0.0318753 -1.13422 1.80504
0.0318749 -1.60814 1.68855
0.0318746 -2.07551 1.44994
0.0318743 -2.50563 1.08838
0.031874 -2.86753 0.610544
0.0318737 -3.13166 0.0306402
0.0318733 -3.27171 -0.629949
0.031873 -3.26631 -1.34346
0.0318727 -3.10046 -2.0769
0.0318724 -2.76678 -2.79357
0.031872 -2.26633 -3.45479
0.0318717 -1.60909 -4.02187
0.0318714 -0.813914 -4.45812
0.0318711 0.0918858 -4.73092
0.0318707 1.07348 -4.81356
0.0318704 2.08983 -4.68701
0.0318701 3.09545 -4.34124
0.0318698 4.04237 -3.77626
0.0318694 4.88238 -3.00267
0.0318691 5.56937 -2.04167
0.0318688 6.06169 -0.92467
0.0318685 0.0485662 0.00236333
0.0318681 0.240979 0.0611789
0.0318678 0.40423 0.19458
0.0318675 0.516899 0.391827
0.0318672 0.560954 0.636783
0.0318669 0.523016 0.908882
0.0318665 0.395349 1.18438
0.0318662 0.176542 1.43783
0.0318659 -0.128178 1.64363
0.0318656 -0.507016 1.77774
0.0318652 -0.942061 1.81917
0.0318649 -1.41012 1.75154
0.0318646 -1.88386 1.56424
0.0318643 -2.33326 1.25344
0.0318639 -2.72725 0.822671
0.0318636 -3.03546 0.283019
0.0318633 -3.23003 -0.34704
0.031863 -3.28735 -1.04228
0.0318626 -3.18959 -1.77171
0.0318623 -2.92608 -2.49999
0.031862 -2.4943 -3.18901
0.0318617 -1.90049 -3.79986
0.0318614 -1.15983 -4.29477
0.031861 -0.29622 -4.63918
0.0318607 0.658509 -4.8037
0.0318604 1.66572 -4.76592
0.0318601 2.68154 -4.51192
0.0318597 3.65876 -4.03744
0.0318594 4.54902 -3.34864
0.0318591 5.30502 -2.46235
0.0318588 5.88299 -1.4058
0.0318584 6.24489 -0.21592
0.0318581 0.163179 0.0272452
0.0318578 0.341307 0.130593
0.0318575 0.47743 0.302954
0.0318572 0.551941 0.530336
0.0318568 0.549389 0.793878
0.0318565 0.459588 1.07099
0.0318562 0.278437 1.33675
0.0318559 0.00838755 1.56542
0.0318555 -0.341463 1.7321
0.0318552 -0.755667 1.81436
0.0318549 -1.21311 1.79374
0.0318546 -1.68801 1.65708
0.0318542 -2.15128 1.39766
0.0318539 -2.57209 1.01587
0.0318536 -2.91955 0.519677
0.0318533 -3.16454 -0.0754749
0.0318529 -3.28147 -0.747063
0.0318526 -3.24995 -1.46635
0.0318523 -3.05617 -2.19962
0.031852 -2.69414 -2.9097
0.0318517 -2.16638 -3.55776
0.0318513 -1.48439 -4.10532
0.031851 -0.668482 -4.51623
0.0318507 0.252685 -4.75873
0.0318504 1.24313 -4.80731
0.03185 2.26096 -4.64433
0.0318497 3.2601 -4.26142
0.0318494 4.19239 -3.66033
0.0318491 5.0098 -2.85345
0.0318487 5.66682 -1.86376
0.0318484 6.12275 -0.724285
0.0318481 0.0819749 0.00675794
0.0318478 0.271084 0.0786132
0.0318475 0.427253 0.223658
0.0318471 0.529533 0.43019
0.0318468 0.560595 0.681251
0.0318465 0.507945 0.955648
0.0318462 0.364873 1.22924
0.0318458 0.131072 1.47645
0.0318455 -0.18711 1.67181
0.0318452 -0.576808 1.79169
0.0318449 -1.01915 1.81579
0.0318446 -1.49017 1.7286
0.0318442 -1.96197 1.52062
0.0318439 -2.40423 1.18919
0.0318436 -2.78587 0.739132
0.0318433 -3.07683 0.182792
0.0318429 -3.24984 -0.460162
0.0318426 -3.28214 -1.16345
0.0318423 -3.15705 -1.89526
0.031842 -2.86519 -2.61965
0.0318416 -2.40549 -3.29825
0.0318413 -1.78568 -3.89218
0.031841 -1.02245 -4.36408
0.0318407 -0.141083 -4.68013
0.0318404 0.825337 -4.81199
0.03184 1.83718 -4.73857
0.0318397 2.84987 -4.44752
0.0318394 3.81585 -3.93629
0.0318391 4.68677 -3.21281
0.0318387 5.41578 -2.29571
0.0318384 5.95988 -1.21391
0.0318381 6.28225 -0.00585677
0.0318378 0.195136 0.0393667
0.0318374 0.36771 0.155062
0.0318371 0.494747 0.337798
0.0318368 0.55725 0.572697
0.0318365 0.540582 0.840183
0.0318362 0.435533 1.11717
0.0318358 0.239081 1.37849
0.0318355 -0.0452019 1.59843
0.0318352 -0.407118 1.7524
0.0318349 -0.830211 1.81852
0.0318345 -1.2925 1.77914
0.0318342 -1.76755 1.62213
0.0318339 -2.22586 1.3419
0.0318336 -2.63647 0.940113
0.0318333 -2.96866 0.425996
0.0318329 -3.19379 -0.183765
0.0318326 -3.28702 -0.865537
0.0318323 -3.22898 -1.58965
0.031832 -3.00711 -2.32169
0.0318316 -2.61679 -3.02407
0.0318313 -2.06205 -3.65788
0.031831 -1.35588 -4.1849
0.0318307 -0.520057 -4.56957
0.0318304 0.415456 -4.78105
0.03183 1.41358 -4.79505
0.0318297 2.43157 -4.59541
0.0318294 3.42286 -4.1754
0.0318291 4.33915 -3.53855
0.0318287 5.13267 -2.69905
0.0318284 5.75856 -1.6816
0.0318281 6.17715 -0.520836
0.0318278 0.115105 0.0133987
0.0318274 0.300253 0.0981306
0.0318271 0.448744 0.254486
0.0318268 0.540144 0.469822
0.0318265 0.557856 0.726387
0.0318262 0.490302 1.0024
0.0318258 0.331816 1.27336
0.0318255 0.0832012 1.5136
0.0318252 -0.248078 1.69785
0.0318249 -0.6481 1.80293
0.0318245 -1.09707 1.80925
0.0318242 -1.57025 1.70224
0.0318239 -2.03924 1.47348
0.0318236 -2.47348 1.12157
0.0318233 -2.84192 0.652571
0.0318229 -3.11485 0.0801012
0.0318226 -3.26565 -0.575003
0.0318223 -3.27247 -1.28545
0.031822 -3.11977 -2.01861
0.0318216 -2.79953 -2.73802
0.0318213 -2.31212 -3.40508
0.031821 -1.66679 -3.98104
0.0318207 -0.8817 -4.42897
0.0318204 0.0164746 -4.71585
0.03182 0.99346 -4.81445
0.0318197 2.00867 -4.70505
0.0318194 3.01688 -4.37687
0.0318191 3.97025 -3.82911
0.0318187 4.82051 -3.07148
0.0318184 5.52129 -2.12439
0.0318181 6.03049 -1.01844
0.0318178 0.0326796 0.00106891
0.0318175 0.226425 0.0536606
0.0318171 0.392819 0.181439
0.0318168 0.510229 0.374128
0.0318165 0.560308 0.615987
0.0318162 0.529262 0.886761
0.0318158 0.408879 1.16291
0.0318155 0.197226 1.41906
0.0318152 -0.101001 1.62957
0.0318149 -0.474516 1.7702
0.0318146 -0.905873 1.81968
0.0318142 -1.37225 1.76121
0.0318139 -1.84661 1.58368
0.0318136 -2.29909 1.28268
0.0318133 -2.69863 0.861159
0.031813 -3.01473 0.329595
0.0318126 -3.21929 -0.294106
0.0318123 -3.28827 -0.98522
0.031812 -3.20336 -1.71318
0.0318117 -2.95326 -2.44292
0.0318113 -2.53477 -3.1365
0.031811 -1.95341 -3.75498
0.0318107 -1.22369 -4.26044
0.0318104 -0.368798 -4.61799
0.0318101 0.580011 -4.79776
0.0318097 1.58459 -4.77673
0.0318094 2.60142 -4.54023
0.0318091 3.5835 -4.08323
0.0318088 4.48243 -3.41102
0.0318084 5.2508 -2.53959
0.0318081 5.84443 -1.49537
0.0318078 6.22476 -0.314544
0.0318075 0.147844 0.0222706
0.0318072 0.32838 0.119687
0.0318068 0.468612 0.286994
0.0318065 0.548659 0.510629
0.0318062 0.552692 0.772078
0.0318059 0.470073 1.049
0.0318055 0.296195 1.31661
0.0318052 0.0329781 1.54916
0.0318049 -0.311003 1.72165
0.0318046 -0.720788 1.81137
0.0318043 -1.17567 1.7995
0.0318039 -1.65022 1.67242
0.0318036 -2.11554 1.42285
0.0318033 -2.54087 1.05062
0.031803 -2.89527 0.563067
0.0318027 -3.14941 -0.0249412
0.0318023 -3.27737 -0.691421
0.031802 -3.25827 -1.40809
0.0318017 -3.07774 -2.14157
0.0318014 -2.72913 -2.85491
0.031801 -2.21427 -3.50934
0.0318007 -1.54393 -4.06627
0.0318004 -0.73774 -4.4893
0.0318001 0.176275 -4.74624
0.0317998 1.16267 -4.81101
0.0317994 2.17997 -4.66532
0.0317991 3.18235 -4.29999
0.0317988 4.12173 -3.71597
0.0317985 4.95001 -2.92477
0.0317982 5.62137 -1.94856
0.0317978 6.09465 -0.819581
0.0317975 0.0661807 0.00439598
0.0317972 0.256937 0.0700943
0.0317969 0.416535 0.209664
0.0317965 0.523798 0.411858
0.0317962 0.561059 0.660102
0.0317959 0.515402 0.933495
0.0317956 0.379629 1.20808
0.0317953 0.152908 1.45833
0.0317949 -0.158942 1.65873
0.0317946 -0.543562 1.78542
0.0317943 -0.982534 1.81778
0.031794 -1.45225 1.73989
0.0317936 -1.92507 1.54171
0.0317933 -2.37082 1.22004
0.031793 -2.75842 0.779076
0.0317927 -3.05765 0.230573
0.0317924 -3.24095 -0.406366
0.031792 -3.28516 -1.10595
0.0317917 -3.17305 -1.83677
0.0317914 -2.89463 -2.56313
0.0317911 -2.44812 -3.2468
0.0317908 -1.84056 -3.84888
0.0317904 -1.08794 -4.3318
0.0317901 -0.214867 -4.66138
0.0317898 0.746155 -4.80878
0.0317895 1.75596 -4.75229
0.0317892 2.7703 -4.4788
0.0317888 3.74178 -3.98495
0.0317885 4.62202 -3.27783
0.0317882 5.36397 -2.37522
0.0317879 5.92424 -1.30525
0.0317875 6.26544 -0.105638
0.0317872 0.180078 0.0333535
0.0317869 0.355362 0.143232
0.0317866 0.48677 0.321106
0.0317863 0.555013 0.552513
0.0317859 0.545064 0.818212
0.0317856 0.447249 1.09535
0.0317853 0.258033 1.35886
0.031785 -0.0195432 1.58302
0.0317847 -0.375802 1.74309
0.0317843 -0.794761 1.81692
0.031784 -1.25484 1.78647
0.0317837 -1.72993 1.63912
0.0317834 -2.1907 1.36874
0.031783 -2.60625 0.976394
0.0317827 -2.94577 0.470708
0.0317824 -3.18039 -0.132217
0.0317821 -3.28492 -0.809269
0.0317818 -3.23949 -1.53122
0.0317814 -3.03094 -2.26397
0.0317811 -2.654 -2.97013
0.0317808 -2.112 -3.61083
0.0317805 -1.41721 -4.1477
0.0317802 -0.590713 -4.54491
0.0317798 0.338136 -4.77117
0.0317795 1.33277 -4.80161
0.0317792 2.35085 -4.61936
0.0317789 3.34603 -4.21691
0.0317786 4.27006 -3.59695
0.0317782 5.07506 -2.77281
0.0317779 5.71584 -1.76839
0.0317776 6.15222 -0.617556
0.0317773 0.099457 0.00997455
0.031777 0.286563 0.0886304
0.0317766 0.438763 0.239672
0.0317763 0.535376 0.4509
0.031776 0.559453 0.704935
0.0317757 0.498979 0.980267
0.0317753 0.347792 1.25257
0.031775 0.106169 1.49619
0.0317747 -0.218956 1.6858
0.0317744 -0.614157 1.79796
0.0317741 -1.06007 1.81275
0.0317737 -1.53233 1.71516
0.0317734 -2.00276 1.49624
0.0317731 -2.4409 1.15401
0.0317728 -2.81571 0.693937
0.0317725 -3.09727 0.129035
0.0317721 -3.25866 -0.52041
0.0317718 -3.27761 -1.22758
0.0317715 -3.13802 -1.96023
0.0317712 -2.83122 -2.68213
0.0317709 -2.3569 -3.3548
0.0317705 -1.72359 -3.9394
0.0317702 -0.948766 -4.3988
0.0317699 -0.0584335 -4.69959
0.0317696 0.91369 -4.81401
0.0317693 1.92746 -4.7217
0.0317689 2.93796 -4.41111
0.0317686 3.89748 -3.88061
0.0317683 4.75769 -3.13909
0.031768 5.47198 -2.2061
0.0317676 5.99785 -1.11145
0.0317673 0.0167682 0.000281239
0.031767 0.211698 0.0466223
0.0317667 0.381095 0.168713
0.0317664 0.503131 0.356742
0.031766 0.559144 0.595376
0.0317657 0.534938 0.864675
0.0317654 0.421826 1.14131
0.0317651 0.217357 1.4
0.0317648 -0.0743036 1.61506
0.0317644 -0.442386 1.76209
0.0317641 -0.869908 1.81951
0.0317638 -1.33444 1.77012
0.0317635 -1.80924 1.60232
0.0317632 -2.26459 1.31116
0.0317628 -2.66947 0.898945
0.0317625 -2.9933 0.375582
0.0317622 -3.20768 -0.241602
0.0317619 -3.28822 -0.928399
0.0317616 -3.21607 -1.65466
0.0317612 -2.97935 -2.38562
0.0317609 -2.57419 -3.0835
0.0317606 -2.00539 -3.70939
0.0317603 -1.28674 -4.22518
0.03176 -0.440776 -4.59568
0.0317596 0.50187 -4.79055
0.0317593 1.50354 -4.78616
0.031759 2.52109 -4.56714
0.0317587 3.5077 -4.12765
0.0317584 4.41502 -3.47213
0.031758 5.19546 -2.61573
0.0317577 5.8045 -1.58406
0.0317574 6.20306 -0.412582
0.0317571 0.132395 0.017792
0.0317568 0.315196 0.109227
0.0317564 0.459411 0.271394
0.0317561 0.544892 0.491162
0.0317558 0.555442 0.750377
0.0317555 0.479976 1.02696
0.0317552 0.313383 1.29624
0.0317548 0.0570532 1.53252
0.0317545 -0.280964 1.71067
0.0317542 -0.686197 1.80773
0.0317539 -1.13837 1.80452
0.0317536 -1.61237 1.68698
0.0317532 -2.07954 1.44727
0.0317529 -2.50919 1.08463
0.0317526 -2.87035 0.605817
0.0317523 -3.13348 0.0250915
0.031752 -3.27233 -0.636099
0.0317516 -3.26556 -1.34994
0.0317513 -3.09824 -2.0834
0.031751 -2.76306 -2.79975
0.0317507 -2.26117 -3.4603
0.0317504 -1.6026 -4.02637
0.03175 -0.806309 -4.46131
0.0317497 0.100327 -4.73252
0.0317494 1.08241 -4.81338
0.0317491 2.09888 -4.68491
0.0317488 3.10419 -4.33718
0.0317484 4.05037 -3.77029
0.0317481 4.88922 -2.99492
0.0317478 5.57466 -2.03238
0.0317475 6.06508 -0.914166
0.0317472 0.050336 0.00253908
0.0317468 0.242591 0.062047
0.0317465 0.405483 0.196071
0.0317462 0.517615 0.39382
0.0317459 0.560994 0.639113
0.0317456 0.522284 0.91135
0.0317452 0.393804 1.18677
0.0317449 0.174201 1.4399
0.0317446 -0.131239 1.64517
0.0317443 -0.510664 1.77854
0.031744 -0.946111 1.81907
0.0317436 -1.41434 1.75041
0.0317433 -1.888 1.56202
0.031743 -2.33705 1.25014
0.0317427 -2.7304 0.818335
0.0317424 -3.03773 0.277789
0.031742 -3.23118 -0.35297
0.0317417 -3.28718 -1.04865
0.0317414 -3.18799 -1.77824
0.0317411 -2.92299 -2.50634
0.0317408 -2.48973 -3.19484
0.0317404 -1.89453 -3.80482
0.0317401 -1.15266 -4.29854
0.0317398 -0.288089 -4.64147
0.0317395 0.667285 -4.80428
0.0317392 1.67477 -4.76463
0.0317388 2.69046 -4.50867
0.0317385 3.66713 -4.03225
0.0317382 4.55639 -3.34161
0.0317379 5.311 -2.45366
0.0317376 5.88721 -1.39576
0.0317372 6.24704 -0.204885
0.0317369 0.164882 0.0278306
0.0317366 0.342733 0.131836
0.0317363 0.478389 0.304756
0.031736 0.552277 0.532549
0.0317356 0.548986 0.796316
0.0317353 0.458382 1.07344
0.031735 0.276421 1.33898
0.0317347 0.00561323 1.5672
0.0317344 -0.344886 1.73323
0.031734 -0.759575 1.81466
0.0317337 -1.21729 1.79305
0.0317334 -1.69222 1.65533
0.0317331 -2.15525 1.3948
0.0317328 -2.57554 1.01195
0.0317324 -2.92222 0.514799
0.0317321 -3.16618 -0.0811415
0.0317318 -3.28187 -0.753288
0.0317315 -3.24896 -1.47286
0.0317312 -3.0537 -2.20609
0.0317308 -2.69017 -2.91578
0.0317305 -2.16098 -3.56312
0.0317302 -1.47769 -4.10962
0.0317299 -0.660716 -4.51917
0.0317296 0.261235 -4.76005
0.0317292 1.25212 -4.80681
0.0317289 2.26999 -4.6419
0.0317286 3.26875 -4.25703
0.0317283 4.20022 -3.65404
0.031728 5.01641 -2.84542
0.0317277 5.67181 -1.85425
0.0317273 6.12579 -0.713614
0.031727 0.0837329 0.00705262
0.0317267 0.272649 0.0795924
0.0317264 0.428427 0.225243
0.0317261 0.530145 0.432253
0.0317257 0.56051 0.68362
0.0317254 0.507077 0.958119
0.0317251 0.363191 1.23159
0.0317248 0.128603 1.47845
0.0317245 -0.190281 1.67324
0.0317241 -0.580537 1.79236
0.0317238 -1.02325 1.81553
0.0317235 -1.4944 1.7273
0.0317232 -1.96607 1.51821
0.0317229 -2.40793 1.18571
0.0317225 -2.7889 0.734634
0.0317222 -3.07892 0.177429
0.0317219 -3.25077 -0.466186
0.0317216 -3.28174 -1.16988
0.0317213 -3.1552 -1.90179
0.0317209 -2.86184 -2.62594
0.0317206 -2.40067 -3.30395
0.0317203 -1.7795 -3.89696
0.03172 -1.01509 -4.36762
0.0317197 -0.13282 -4.68215
0.0317194 0.834187 -4.81226
0.031719 1.84624 -4.73696
0.0317187 2.85873 -4.44395
0.0317184 3.82408 -3.93078
0.0317181 4.69394 -3.20548
0.0317178 5.42148 -2.28677
0.0317174 5.96377 -1.20368
0.0317171 0.000844042 7.12407e-07
0.0317168 0.196807 0.0400677
0.0317165 0.36907 0.156408
0.0317162 0.495611 0.339681
0.0317158 0.557468 0.574961
0.0317155 0.540047 0.842637
0.0317152 0.43419 1.1196
0.0317149 0.236932 1.38066
0.0317146 -0.0480945 1.60012
0.0317142 -0.410636 1.7534
0.0317139 -0.83418 1.81866
0.0317136 -1.2967 1.77828
0.0317133 -1.77174 1.62019
0.031713 -2.22976 1.33886
0.0317127 -2.63981 0.936022
0.0317123 -2.97117 0.420971
0.031712 -3.19523 -0.189544
0.0317117 -3.2872 -0.87183
0.0317114 -3.22774 -1.59617
0.0317111 -3.00438 -2.32811
0.0317107 -2.61257 -3.03005
0.0317104 -2.05642 -3.66309
0.0317101 -1.34899 -4.18899
0.0317098 -0.512137 -4.57225
0.0317095 0.424105 -4.78207
0.0317091 1.4226 -4.79423
0.0317088 2.44056 -4.59265
0.0317085 3.4314 -4.17069
0.0317082 4.34681 -3.53196
0.0317079 5.13903 -2.69075
0.0317075 5.76325 -1.67187
0.0317072 6.17983 -0.510009
0.0317069 0.116845 0.0138117
0.0317066 0.301766 0.0992186
0.0317063 0.449835 0.256162
0.031706 0.540646 0.471949
0.0317056 0.557644 0.728787
0.0317053 0.489298 1.00486
0.031705 0.329998 1.27567
0.0317047 0.0806068 1.51552
0.0317044 -0.251354 1.69917
0.031704 -0.651906 1.80345
0.0317037 -1.1012 1.80882
0.0317034 -1.57448 1.70075
0.0317031 -2.0433 1.4709
0.0317028 -2.47709 1.11791
0.0317024 -2.84481 0.647916
0.0317021 -3.11677 0.0746107
0.0317018 -3.26637 -0.581114
0.0317015 -3.27183 -1.29191
0.0317012 -3.11767 -2.02512
0.0317009 -2.79593 -2.74423
0.0317005 -2.30706 -3.41066
0.0317002 -1.6604 -3.98563
0.0316999 -0.874175 -4.43227
0.0316996 0.0248608 -4.71759
0.0316993 1.00237 -4.81442
0.0316989 2.01772 -4.70311
0.0316986 3.02566 -4.37297
0.0316983 3.97833 -3.82328
0.031698 4.82746 -3.06387
0.0316977 5.52671 -2.11521
0.0316974 6.03404 -1.00802
0.031697 0.0344529 0.00118818
0.0316967 0.228057 0.0544754
0.0316964 0.394107 0.182884
0.0316961 0.510995 0.376086
0.0316958 0.560406 0.618297
0.0316954 0.528594 0.889227
0.0316951 0.407399 1.16531
0.0316948 0.194946 1.42116
0.0316945 -0.104008 1.63116
0.0316942 -0.478123 1.77107
0.0316939 -0.909898 1.81966
0.0316935 -1.37647 1.76017
0.0316932 -1.85078 1.58155
0.0316929 -2.30292 1.27946
0.0316926 -2.70184 0.856901
0.0316923 -3.01708 0.324429
0.0316919 -3.22053 -0.299989
0.0316916 -3.28822 -0.991572
0.0316913 -3.20187 -1.71971
0.031691 -2.95028 -2.44929
0.0316907 -2.5303 -3.14238
0.0316903 -1.94756 -3.76002
0.03169 -1.21661 -4.26432
0.0316897 -0.360732 -4.62041
0.0316894 0.588749 -4.79849
0.0316891 1.59363 -4.77559
0.0316888 2.61037 -4.53715
0.0316884 3.59192 -4.07819
0.0316881 4.4899 -3.40413
0.0316878 5.2569 -2.53103
0.0316875 5.84879 -1.48542
0.0316872 6.22708 -0.303573
0.0316868 0.14956 0.0228009
0.0316865 0.329835 0.120881
0.0316862 0.469615 0.288756
0.0316859 0.549049 0.512815
0.0316856 0.552351 0.774505
0.0316853 0.468933 1.05146
0.0316849 0.294243 1.31886
0.0316846 0.0302609 1.55099
0.0316843 -0.31438 1.72284
0.031684 -0.724664 1.81174
0.0316837 -1.17984 1.79889
0.0316833 -1.65443 1.67075
0.031683 -2.11954 1.42008
0.0316827 -2.54437 1.04678
0.0316824 -2.89801 0.55826
0.0316821 -3.15114 -0.0305527
0.0316818 -3.27788 -0.697611
0.0316814 -3.25739 -1.41458
0.0316811 -3.07539 -2.14805
0.0316808 -2.72528 -2.86104
0.0316805 -2.20898 -3.51477
0.0316802 -1.53733 -4.07067
0.0316799 -0.730049 -4.49235
0.0316795 0.184774 -4.74769
0.0316792 1.17164 -4.81067
0.0316789 2.189 -4.66305
0.0316786 3.19104 -4.29576
0.0316783 4.12965 -3.70983
0.0316779 4.95673 -2.91688
0.0316776 5.6265 -1.93915
0.0316773 6.09786 -0.808987
0.031677 0.0679449 0.00463441
0.0316767 0.258525 0.0710211
0.0316764 0.417747 0.211205
0.031676 0.52446 0.413888
0.0316757 0.561034 0.662453
0.0316754 0.514599 0.935966
0.0316751 0.378012 1.21045
0.0316748 0.1505 1.46037
0.0316744 -0.162061 1.66021
0.0316741 -0.547253 1.78615
0.0316738 -0.986609 1.8176
0.0316735 -1.45647 1.73867
0.0316732 -1.92919 1.5394
0.0316729 -2.37456 1.21664
0.0316725 -2.76151 0.774655
0.0316722 -3.05982 0.225271
0.0316719 -3.24198 -0.412346
0.0316716 -3.28487 -1.11236
0.0316713 -3.17132 -1.84329
0.031671 -2.8914 -2.56945
0.0316706 -2.44342 -3.25257
0.0316703 -1.83449 -3.85375
0.03167 -1.08067 -4.33545
0.0316697 -0.206665 -4.66353
0.0316694 0.754971 -4.8092
0.031669 1.76502 -4.75083
0.0316687 2.77919 -4.47538
0.0316684 3.75007 -3.97959
0.0316681 4.62929 -3.27064
0.0316678 5.3698 -2.3664
0.0316675 5.92829 -1.2951
0.0316671 6.26739 -0.094535
0.0316668 0.181765 0.0339999
0.0316665 0.356753 0.14453
0.0316662 0.487679 0.322951
0.0316659 0.555287 0.554754
0.0316656 0.544592 0.820659
0.0316652 0.445972 1.09779
0.0316649 0.255947 1.36106
0.0316646 -0.0223802 1.58476
0.0316643 -0.379275 1.74416
0.031664 -0.798702 1.81713
0.0316636 -1.25904 1.78569
0.0316633 -1.73413 1.63726
0.031663 -2.19464 1.36578
0.0316627 -2.60964 0.972383
0.0316624 -2.94836 0.465751
0.0316621 -3.18193 -0.137943
0.0316617 -3.28521 -0.815531
0.0316614 -3.23837 -1.53773
0.0316611 -3.02833 -2.27042
0.0316608 -2.6499 -2.97617
0.0316605 -2.10648 -3.61611
0.0316602 -1.41041 -4.1519
0.0316598 -0.582865 -4.54772
0.0316595 0.346739 -4.77234
0.0316592 1.34178 -4.80094
0.0316589 2.35986 -4.61676
0.0316586 3.35462 -4.21235
0.0316583 4.27781 -3.5905
0.0316579 5.08154 -2.76464
0.0316576 5.72067 -1.75876
0.0316573 6.15508 -0.606801
0.031657 0.101206 0.0103316
0.0316567 0.288101 0.0896671
0.0316564 0.439894 0.241306
0.031656 0.535931 0.452997
0.0316557 0.559301 0.707321
0.0316554 0.49804 0.982736
0.0316551 0.346039 1.2549
0.0316548 0.103633 1.49815
0.0316544 -0.222182 1.68717
0.0316541 -0.617927 1.79854
0.0316538 -1.06419 1.81239
0.0316535 -1.53656 1.71375
0.0316532 -2.00684 1.49374
0.0316529 -2.44456 1.15043
0.0316525 -2.81866 0.689356
0.0316522 -3.09927 0.123604
0.0316519 -3.25949 -0.526481
0.0316516 -3.27709 -1.23403
0.0316513 -3.13604 -1.96675
0.031651 -2.82774 -2.68838
0.0316506 -2.35196 -3.36043
0.0316503 -1.7173 -3.94408
0.03165 -0.941322 -4.40222
0.0316497 -0.0501044 -4.70147
0.0316494 0.922574 -4.81413
0.0316491 1.93652 -4.71991
0.0316487 2.94678 -4.40736
0.0316484 3.90563 -3.87493
0.0316481 4.76474 -3.13161
0.0316478 5.47754 -2.19704
0.0316475 6.00156 -1.10111
0.0316472 0.0185437 0.000343967
0.0316468 0.213348 0.0473834
0.0316465 0.382418 0.170111
0.0316462 0.503944 0.358666
0.0316459 0.559299 0.597665
0.0316456 0.534333 0.867136
0.0316453 0.420411 1.14373
0.0316449 0.21514 1.40214
0.0316446 -0.0772572 1.6167
0.0316443 -0.445951 1.76302
0.031644 -0.873908 1.81957
0.0316437 -1.33866 1.76916
0.0316434 -1.81341 1.60028
0.031643 -2.26845 1.30802
0.0316427 -2.67275 0.894765
0.0316424 -2.99572 0.370483
0.0316421 -3.20902 -0.247436
0.0316418 -3.28828 -0.934724
0.0316415 -3.21471 -1.66119
0.0316411 -2.9765 -2.39202
0.0316408 -2.56984 -3.08944
0.0316405 -1.99964 -3.71451
0.0316402 -1.27975 -4.22916
0.0316399 -0.432778 -4.59823
0.0316396 0.510567 -4.79142
0.0316392 1.51258 -4.78518
0.0316389 2.53006 -4.56421
0.0316386 3.51618 -4.12276
0.0316383 4.42258 -3.46538
0.031638 5.20169 -2.60729
0.0316376 5.80902 -1.57421
0.0316373 6.20556 -0.401677
0.031637 0.134123 0.0182669
0.0316367 0.316679 0.110371
0.0316364 0.460456 0.273116
0.0316361 0.545335 0.493321
0.0316357 0.555163 0.752792
0.0316354 0.478901 1.02942
0.0316351 0.311494 1.29852
0.0316348 0.0543938 1.5344
0.0316345 -0.284293 1.71192
0.0316342 -0.69004 1.80817
0.0316339 -1.14252 1.804
0.0316335 -1.61659 1.68539
0.0316332 -2.08356 1.44458
0.0316329 -2.51275 1.08088
0.0316326 -2.87316 0.601081
0.0316323 -3.1353 0.0195365
0.031632 -3.27294 -0.642253
0.0316316 -3.2648 -1.35642
0.0316313 -3.09601 -2.08989
0.031631 -2.75933 -2.80592
0.0316307 -2.25598 -3.4658
0.0316304 -1.5961 -4.03086
0.0316301 -0.798696 -4.46448
0.0316297 0.108774 -4.73411
0.0316294 1.09135 -4.81318
0.0316291 2.10793 -4.6828
0.0316288 3.11293 -4.3331
0.0316285 4.05836 -3.76429
0.0316282 4.89605 -2.98715
0.0316278 5.57993 -2.02308
0.0316275 6.06845 -0.903652
0.0316272 0.0521053 0.00272113
0.0316269 0.2442 0.062921
0.0316266 0.406732 0.197567
0.0316263 0.518327 0.395817
0.0316259 0.561027 0.641446
0.0316256 0.521545 0.913819
0.0316253 0.392252 1.18915
0.031625 0.171854 1.44197
0.0316247 -0.134306 1.64671
0.0316244 -0.514315 1.77934
0.031624 -0.950163 1.81896
0.0316237 -1.41857 1.74927
0.0316234 -1.89214 1.5598
0.0316231 -2.34083 1.24682
0.0316228 -2.73356 0.813991
0.0316225 -3.03998 0.272551
0.0316221 -3.23231 -0.358905
0.0316218 -3.28701 -1.05503
0.0316215 -3.18638 -1.78477
0.0316212 -2.91988 -2.51268
0.0316209 -2.48514 -3.20066
0.0316206 -1.88856 -3.80977
0.0316202 -1.14548 -4.30229
0.0316199 -0.279951 -4.64375
0.0316196 0.676066 -4.80485
0.0316193 1.68382 -4.76332
0.031619 2.69937 -4.50541
0.0316187 3.67548 -4.02704
0.0316184 4.56375 -3.33456
0.031618 5.31696 -2.44497
0.0316177 5.89141 -1.38571
0.0316174 6.24917 -0.193843
0.0316171 0.166584 0.0284222
0.0316168 0.344155 0.133086
0.0316165 0.479344 0.306562
0.0316161 0.552607 0.534764
0.0316158 0.548576 0.798754
0.0316155 0.45717 1.07589
0.0316152 0.274398 1.34121
0.0316149 0.00283259 1.56899
0.0316146 -0.348314 1.73436
0.0316142 -0.763486 1.81494
0.0316139 -1.22147 1.79235
0.0316136 -1.69643 1.65356
0.0316133 -2.15922 1.39193
0.031613 -2.57899 1.00802
0.0316127 -2.92488 0.509912
0.0316123 -3.1678 -0.0868142
0.031612 -3.28226 -0.759517
0.0316117 -3.24795 -1.47936
0.0316114 -3.05122 -2.21255
0.0316111 -2.68619 -2.92186
0.0316108 -2.15557 -3.56848
0.0316105 -1.47099 -4.11391
0.0316101 -0.652941 -4.5221
0.0316098 0.26979 -4.76135
0.0316095 1.26111 -4.8063
0.0316092 2.27901 -4.63946
0.0316089 3.27739 -4.25262
0.0316086 4.20805 -3.64774
0.0316082 5.023 -2.83738
0.0316079 5.67678 -1.84472
0.0316076 6.12881 -0.702934
0.0316073 0.08549 0.00735358
0.031607 0.274212 0.0805773
0.0316067 0.429597 0.226833
0.0316063 0.530751 0.434318
0.031606 0.560419 0.68599
0.0316057 0.506203 0.96059
0.0316054 0.361502 1.23394
0.0316051 0.126128 1.48044
0.0316048 -0.193456 1.67467
0.0316045 -0.58427 1.79301
0.0316041 -1.02735 1.81525
0.0316038 -1.49863 1.72598
0.0316035 -1.97017 1.5158
0.0316032 -2.41162 1.18221
0.0316029 -2.79191 0.730129
0.0316026 -3.08101 0.172059
0.0316022 -3.2517 -0.472215
0.0316019 -3.28133 -1.17631
0.0316016 -3.15334 -1.90831
0.0316013 -2.85848 -2.63222
0.031601 -2.39584 -3.30965
0.0316007 -1.77331 -3.90173
0.0316003 -1.00773 -4.37115
0.0316 -0.12455 -4.68415
0.0315997 0.84304 -4.81252
0.0315994 1.8553 -4.73532
0.0315991 2.86758 -4.44035
0.0315988 3.8323 -3.92525
0.0315985 4.70109 -3.19814
0.0315981 5.42717 -2.27783
0.0315978 5.96764 -1.19343
0.0315975 0.00262035 6.86626e-06
0.0315972 0.198475 0.0407747
0.0315969 0.370426 0.157759
0.0315966 0.496471 0.341567
0.0315962 0.55768 0.577228
0.0315959 0.539506 0.845093
0.0315956 0.43284 1.12203
0.0315953 0.234777 1.38283
0.031595 -0.0509932 1.60181
0.0315947 -0.414158 1.7544
0.0315944 -0.838153 1.81879
0.031594 -1.30091 1.77741
0.0315937 -1.77592 1.61823
0.0315934 -2.23366 1.33581
0.0315931 -2.64314 0.931922
0.0315928 -2.97367 0.415939
0.0315925 -3.19666 -0.195327
0.0315921 -3.28736 -0.878126
0.0315918 -3.22649 -1.60269
0.0315915 -3.00164 -2.33454
0.0315912 -2.60834 -3.03604
0.0315909 -2.05077 -3.66829
0.0315906 -1.34209 -4.19307
0.0315903 -0.504209 -4.57492
0.0315899 0.432759 -4.78308
0.0315896 1.43162 -4.7934
0.0315893 2.44955 -4.58988
0.031589 3.43993 -4.16595
0.0315887 4.35445 -3.52535
0.0315884 5.14538 -2.68244
0.031588 5.76791 -1.66212
0.0315877 6.1825 -0.499173
0.0315874 0.118584 0.0142308
0.0315871 0.303276 0.100312
0.0315868 0.450921 0.257842
0.0315865 0.541143 0.474079
0.0315862 0.557425 0.731189
0.0315858 0.488287 1.00733
0.0315855 0.328173 1.27797
0.0315852 0.0780058 1.51743
0.0315849 -0.254635 1.70048
0.0315846 -0.655715 1.80396
0.0315843 -1.10534 1.80838
0.031584 -1.57871 1.69926
0.0315836 -2.04735 1.4683
0.0315833 -2.48069 1.11423
0.031583 -2.84769 0.643253
0.0315827 -3.11867 0.0691136
0.0315824 -3.26708 -0.587229
0.0315821 -3.27118 -1.29838
0.0315817 -3.11556 -2.03162
0.0315814 -2.79232 -2.75044
0.0315811 -2.30199 -3.41622
0.0315808 -1.65399 -3.99022
0.0315805 -0.866642 -4.43556
0.0315802 0.0332532 -4.71932
0.0315799 1.01129 -4.81437
0.0315795 2.02678 -4.70115
0.0315792 3.03444 -4.36905
0.0315789 3.9864 -3.81743
0.0315786 4.83439 -3.05624
0.0315783 5.53212 -2.10603
0.031578 6.03757 -0.997587
0.0315777 0.0362259 0.00131376
0.0315773 0.229687 0.0552962
0.031577 0.395392 0.184334
0.0315767 0.511755 0.378049
0.0315764 0.560497 0.62061
0.0315761 0.527918 0.891693
0.0315758 0.405911 1.16771
0.0315754 0.19266 1.42327
0.0315751 -0.107022 1.63275
0.0315748 -0.481734 1.77193
0.0315745 -0.913926 1.81963
0.0315742 -1.3807 1.75912
0.0315739 -1.85493 1.57941
0.0315736 -2.30674 1.27623
0.0315732 -2.70506 0.852634
0.0315729 -3.01942 0.319256
0.0315726 -3.22176 -0.305877
0.0315723 -3.28815 -0.997927
0.031572 -3.20038 -1.72624
0.0315717 -2.94729 -2.45567
0.0315714 -2.52583 -3.14825
0.031571 -1.94169 -3.76506
0.0315707 -1.20951 -4.26818
0.0315704 -0.35266 -4.62282
0.0315701 0.597491 -4.7992
0.0315698 1.60268 -4.77443
0.0315695 2.61931 -4.53404
0.0315692 3.60033 -4.07313
0.0315688 4.49736 -3.39722
0.0315685 5.26299 -2.52245
0.0315682 5.85315 -1.47546
0.0315679 6.22938 -0.292594
0.0315676 0.151275 0.0233373
0.0315673 0.331287 0.122081
0.031567 0.470613 0.290523
0.0315666 0.549433 0.515004
0.0315663 0.552003 0.776933
0.031566 0.467785 1.05391
0.0315657 0.292283 1.32112
0.0315654 0.0275373 1.55282
0.0315651 -0.317761 1.72403
0.0315648 -0.728543 1.81209
0.0315644 -1.18401 1.79828
0.0315641 -1.65865 1.66907
0.0315638 -2.12353 1.4173
0.0315635 -2.54787 1.04293
0.0315632 -2.90074 0.553444
0.0315629 -3.15286 -0.0361705
0.0315625 -3.27837 -0.703805
0.0315622 -3.2565 -1.42108
0.0315619 -3.07302 -2.15453
0.0315616 -2.72141 -2.86716
0.0315613 -2.20367 -3.52019
0.031561 -1.53072 -4.07505
0.0315607 -0.72235 -4.4954
0.0315603 0.19328 -4.74913
0.03156 1.18061 -4.8103
0.0315597 2.19804 -4.66076
0.0315594 3.19973 -4.29151
0.0315591 4.13755 -3.70367
0.0315588 4.96343 -2.90897
0.0315585 5.63162 -1.92973
0.0315581 6.10105 -0.798385
0.0315578 0.0697086 0.00487912
0.0315575 0.26011 0.0719538
0.0315572 0.418955 0.212751
0.0315569 0.525116 0.415922
0.0315566 0.561002 0.664806
0.0315563 0.513788 0.938436
0.0315559 0.376387 1.21282
0.0315556 0.148084 1.4624
0.0315553 -0.165186 1.66169
0.031555 -0.550948 1.78687
0.0315547 -0.990686 1.8174
0.0315544 -1.4607 1.73744
0.0315541 -1.93331 1.53708
0.0315537 -2.3783 1.21323
0.0315534 -2.76459 0.770225
0.0315531 -3.06199 0.219963
0.0315528 -3.24301 -0.418332
0.0315525 -3.28457 -1.11876
0.0315522 -3.16957 -1.84982
0.0315519 -2.88815 -2.57576
0.0315516 -2.4387 -3.25832
0.0315512 -1.8284 -3.8586
0.0315509 -1.0734 -4.33908
0.0315506 -0.198456 -4.66566
0.0315503 0.763791 -4.80961
0.03155 1.77407 -4.74935
0.0315497 2.78807 -4.47194
0.0315494 3.75835 -3.97421
0.031549 4.63654 -3.26344
0.0315487 5.37562 -2.35757
0.0315484 5.93231 -1.28495
0.0315481 6.26932 -0.0834257
0.0315478 0.18345 0.0346525
0.0315475 0.358141 0.145833
0.0315472 0.488584 0.3248
0.0315468 0.555555 0.556997
0.0315465 0.544113 0.823107
0.0315462 0.444686 1.10023
0.0315459 0.253854 1.36326
0.0315456 -0.0252234 1.58649
0.0315453 -0.382753 1.74521
0.031545 -0.802646 1.81734
0.0315446 -1.26323 1.7849
0.0315443 -1.73833 1.6354
0.031544 -2.19857 1.36282
0.0315437 -2.61303 0.968364
0.0315434 -2.95093 0.460788
0.0315431 -3.18345 -0.143675
0.0315428 -3.28547 -0.821796
0.0315424 -3.23723 -1.54425
0.0315421 -3.02572 -2.27686
0.0315418 -2.64579 -2.9822
0.0315415 -2.10094 -3.62139
0.0315412 -1.4036 -4.15608
0.0315409 -0.575008 -4.55051
0.0315406 0.355347 -4.77349
0.0315402 1.35078 -4.80026
0.0315399 2.36887 -4.61414
0.0315396 3.36321 -4.20777
0.0315393 4.28554 -3.58403
0.031539 5.088 -2.75645
0.0315387 5.72548 -1.74911
0.0315384 6.15792 -0.596037
0.0315381 0.102955 0.0106949
0.0315377 0.289636 0.0907096
0.0315374 0.441021 0.242944
0.0315371 0.53648 0.455098
0.0315368 0.559143 0.709709
0.0315365 0.497094 0.985205
0.0315362 0.344278 1.25722
0.0315359 0.101091 1.50011
0.0315355 -0.225413 1.68853
0.0315352 -0.6217 1.79912
0.0315349 -1.06831 1.81203
0.0315346 -1.54079 1.71234
0.0315343 -2.01091 1.49123
0.031534 -2.44821 1.14684
0.0315337 -2.82161 0.684767
0.0315333 -3.10126 0.118166
0.031533 -3.2603 -0.532556
0.0315327 -3.27655 -1.24048
0.0315324 -3.13404 -1.97326
0.0315321 -2.82425 -2.69463
0.0315318 -2.347 -3.36606
0.0315315 -1.711 -3.94876
0.0315312 -0.933869 -4.40562
0.0315308 -0.0417688 -4.70332
0.0315305 0.931461 -4.81423
0.0315302 1.94558 -4.71811
0.0315299 2.9556 -4.40359
0.0315296 3.91377 -3.86924
0.0315293 4.77178 -3.12412
0.031529 5.48309 -2.18796
0.0315286 6.00525 -1.09077
0.0315283 0.020319 0.000413004
0.031528 0.214997 0.0481505
0.0315277 0.383737 0.171515
0.0315274 0.504751 0.360593
0.0315271 0.559448 0.599957
0.0315268 0.533721 0.869598
0.0315265 0.418988 1.14614
0.0315261 0.212915 1.40427
0.0315258 -0.0802167 1.61834
0.0315255 -0.449521 1.76395
0.0315252 -0.87791 1.81961
0.0315249 -1.34287 1.7682
0.0315246 -1.81759 1.59823
0.0315243 -2.27231 1.30487
0.0315239 -2.67602 0.890577
0.0315236 -2.99814 0.365376
0.0315233 -3.21035 -0.253276
0.031523 -3.28832 -0.941052
0.0315227 -3.21333 -1.66771
0.0315224 -2.97363 -2.39842
0.0315221 -2.56549 -3.09537
0.0315218 -1.99388 -3.71962
0.0315214 -1.27275 -4.23313
0.0315211 -0.424773 -4.60076
0.0315208 0.519268 -4.79227
0.0315205 1.52161 -4.78418
0.0315202 2.53903 -4.56126
0.0315199 3.52465 -4.11786
0.0315196 4.43013 -3.45861
0.0315192 5.2079 -2.59884
0.0315189 5.81353 -1.56435
0.0315186 6.20804 -0.390765
0.0315183 0.13585 0.0187479
0.031518 0.318159 0.111521
0.0315177 0.461496 0.274842
0.0315174 0.545774 0.495483
0.0315171 0.554876 0.755208
0.0315167 0.477818 1.03188
0.0315164 0.309598 1.3008
0.0315161 0.0517279 1.53627
0.0315158 -0.287628 1.71316
0.0315155 -0.693887 1.8086
0.0315152 -1.14668 1.80347
0.0315149 -1.62081 1.6838
0.0315146 -2.08759 1.44189
0.0315142 -2.5163 1.07711
0.0315139 -2.87596 0.596337
0.0315136 -3.13711 0.0139751
0.0315133 -3.27354 -0.648411
0.031513 -3.26402 -1.3629
0.0315127 -3.09376 -2.09639
0.0315124 -2.75558 -2.81208
0.031512 -2.25079 -3.47129
0.0315117 -1.58959 -4.03534
0.0315114 -0.791074 -4.46764
0.0315111 0.117227 -4.73569
0.0315108 1.1003 -4.81297
0.0315105 2.11697 -4.68066
0.0315102 3.12166 -4.32901
0.0315099 4.06635 -3.75828
0.0315095 4.90287 -2.97937
0.0315092 5.58519 -2.01377
0.0315089 6.0718 -0.89313
0.0315086 0.0538741 0.00290947
0.0315083 0.245808 0.0638009
0.031508 0.407977 0.199068
0.0315077 0.519033 0.397818
0.0315074 0.561054 0.64378
0.031507 0.520799 0.916289
0.0315067 0.390693 1.19154
0.0315064 0.169499 1.44404
0.0315061 -0.137378 1.64824
0.0315058 -0.517971 1.78013
0.0315055 -0.954218 1.81884
0.0315052 -1.42279 1.74813
0.0315049 -1.89628 1.55756
0.0315045 -2.34461 1.24349
0.0315042 -2.7367 0.809638
0.0315039 -3.04223 0.267306
0.0315036 -3.23343 -0.364845
0.0315033 -3.28682 -1.06142
0.031503 -3.18475 -1.7913
0.0315027 -2.91675 -2.51903
0.0315024 -2.48054 -3.20647
0.031502 -1.88257 -3.81471
0.0315017 -1.13829 -4.30604
0.0315014 -0.271805 -4.64601
0.0315011 0.68485 -4.8054
0.0315008 1.69288 -4.762
0.0315005 2.70829 -4.50213
0.0315002 3.68383 -4.02182
0.0314999 4.5711 -3.32749
0.0314995 5.32291 -2.43626
0.0314992 5.89559 -1.37564
0.0314989 6.25128 -0.182794
0.0314986 0.168283 0.0290199
0.0314983 0.345574 0.13434
0.031498 0.480293 0.308373
0.0314977 0.55293 0.536983
0.0314974 0.54816 0.801193
0.031497 0.45595 1.07833
0.0314967 0.272368 1.34344
0.0314964 4.56196e-05 1.57077
0.0314961 -0.351747 1.73548
0.0314958 -0.7674 1.81522
0.0314955 -1.22566 1.79165
0.0314952 -1.70064 1.65178
0.0314949 -2.16319 1.38905
0.0314945 -2.58243 1.00408
0.0314942 -2.92753 0.505018
0.0314939 -3.16942 -0.0924928
0.0314936 -3.28264 -0.76575
0.0314933 -3.24693 -1.48587
0.031493 -3.04872 -2.21901
0.0314927 -2.68219 -2.92794
0.0314924 -2.15014 -3.57382
0.031492 -1.46427 -4.11819
0.0314917 -0.645158 -4.52501
0.0314914 0.278351 -4.76264
0.0314911 1.2701 -4.80577
0.0314908 2.28804 -4.637
0.0314905 3.28602 -4.2482
0.0314902 4.21586 -3.64142
0.0314899 5.02958 -2.82933
0.0314895 5.68174 -1.83518
0.0314892 6.13182 -0.692245
0.0314889 0.0872463 0.0076608
0.0314886 0.275772 0.0815681
0.0314883 0.430763 0.228428
0.031488 0.531352 0.436388
0.0314877 0.560321 0.688362
0.0314874 0.505321 0.96306
0.031487 0.359806 1.23629
0.0314867 0.123645 1.48243
0.0314864 -0.196638 1.67609
0.0314861 -0.588008 1.79366
0.0314858 -1.03145 1.81497
0.0314855 -1.50286 1.72466
0.0314852 -1.97427 1.51338
0.0314849 -2.41532 1.1787
0.0314845 -2.79493 0.725615
0.0314842 -3.08308 0.166681
0.0314839 -3.25261 -0.478249
0.0314836 -3.28091 -1.18274
0.0314833 -3.15146 -1.91483
0.031483 -2.85511 -2.6385
0.0314827 -2.39099 -3.31534
0.0314824 -1.76711 -3.90649
0.0314821 -1.00036 -4.37466
0.0314817 -0.116273 -4.68614
0.0314814 0.851897 -4.81277
0.0314811 1.86436 -4.73367
0.0314808 2.87643 -4.43674
0.0314805 3.84051 -3.9197
0.0314802 4.70824 -3.19078
0.0314799 5.43285 -2.26887
0.0314796 5.9715 -1.18317
0.0314792 0.00439663 1.93306e-05
0.0314789 0.200142 0.0414877
0.0314786 0.371778 0.159116
0.0314783 0.497325 0.343458
0.031478 0.557886 0.579497
0.0314777 0.538957 0.847548
0.0314774 0.431483 1.12445
0.0314771 0.232614 1.385
0.0314767 -0.0538981 1.60349
0.0314764 -0.417685 1.75539
0.0314761 -0.842129 1.81891
0.0314758 -1.30511 1.77653
0.0314755 -1.78011 1.61627
0.0314752 -2.23756 1.33275
0.0314749 -2.64647 0.927813
0.0314746 -2.97617 0.410899
0.0314743 -3.19808 -0.201117
0.0314739 -3.28751 -0.884426
0.0314736 -3.22523 -1.60921
0.0314733 -2.99889 -2.34096
0.031473 -2.6041 -3.04202
0.0314727 -2.04512 -3.67348
0.0314724 -1.33518 -4.19714
0.0314721 -0.496274 -4.57757
0.0314718 0.441418 -4.78408
0.0314714 1.44064 -4.79255
0.0314711 2.45854 -4.58708
0.0314708 3.44846 -4.1612
0.0314705 4.36209 -3.51872
0.0314702 5.15171 -2.67411
0.0314699 5.77256 -1.65236
0.0314696 6.18515 -0.48833
0.0314693 0.120322 0.0146562
0.031469 0.304783 0.101412
0.0314686 0.452003 0.259527
0.0314683 0.541634 0.476212
0.031468 0.5572 0.733593
0.0314677 0.487269 1.00979
0.0314674 0.326342 1.28027
0.0314671 0.0753983 1.51934
0.0314668 -0.257921 1.70178
0.0314665 -0.659528 1.80446
0.0314662 -1.10948 1.80792
0.0314658 -1.58293 1.69775
0.0314655 -2.0514 1.46569
0.0314652 -2.48428 1.11055
0.0314649 -2.85056 0.638582
0.0314646 -3.12056 0.0636099
0.0314643 -3.26778 -0.593349
0.031464 -3.27052 -1.30484
0.0314637 -3.11343 -2.03813
0.0314633 -2.78869 -2.75664
0.031463 -2.29691 -3.42178
0.0314627 -1.64758 -3.99479
0.0314624 -0.859099 -4.43884
0.0314621 0.0416518 -4.72103
0.0314618 1.02021 -4.8143
0.0314615 2.03583 -4.69917
0.0314612 3.04321 -4.36511
0.0314609 3.99446 -3.81157
0.0314605 4.84132 -3.04859
0.0314602 5.53751 -2.09683
0.0314599 6.04109 -0.987147
0.0314596 0.0379986 0.00144563
0.0314593 0.231315 0.0561229
0.031459 0.396672 0.18579
0.0314587 0.512509 0.380015
0.0314584 0.560582 0.622925
0.0314581 0.527236 0.894159
0.0314577 0.404417 1.17011
0.0314574 0.190367 1.42537
0.0314571 -0.110041 1.63433
0.0314568 -0.48535 1.77279
0.0314565 -0.917957 1.81959
0.0314562 -1.38492 1.75806
0.0314559 -1.85909 1.57726
0.0314556 -2.31056 1.27299
0.0314553 -2.70826 0.848359
0.0314549 -3.02175 0.314076
0.0314546 -3.22298 -0.31177
0.0314543 -3.28807 -1.00429
0.031454 -3.19887 -1.73276
0.0314537 -2.94428 -2.46204
0.0314534 -2.52134 -3.15412
0.0314531 -1.93581 -3.77008
0.0314528 -1.20241 -4.27203
0.0314525 -0.344579 -4.62521
0.0314521 0.606238 -4.79989
0.0314518 1.61173 -4.77326
0.0314515 2.62825 -4.53092
0.0314512 3.60874 -4.06806
0.0314509 4.50481 -3.39029
0.0314506 5.26906 -2.51386
0.0314503 5.85748 -1.46549
0.03145 6.23167 -0.281609
0.0314497 0.152988 0.02388
0.0314493 0.332735 0.123286
0.031449 0.471606 0.292295
0.0314487 0.549811 0.517196
0.0314484 0.551649 0.779362
0.0314481 0.46663 1.05637
0.0314478 0.290317 1.32337
0.0314475 0.0248073 1.55464
0.0314472 -0.321148 1.7252
0.0314469 -0.732427 1.81244
0.0314465 -1.18818 1.79765
0.0314462 -1.66287 1.66738
0.0314459 -2.12753 1.41451
0.0314456 -2.55137 1.03908
0.0314453 -2.90346 0.54862
0.031445 -3.15456 -0.0417944
0.0314447 -3.27885 -0.710004
0.0314444 -3.2556 -1.42757
0.0314441 -3.07064 -2.16101
0.0314437 -2.71754 -2.87328
0.0314434 -2.19836 -3.52561
0.0314431 -1.5241 -4.07943
0.0314428 -0.714642 -4.49843
0.0314425 0.201791 -4.75056
0.0314422 1.18958 -4.80992
0.0314419 2.20708 -4.65845
0.0314416 3.20841 -4.28724
0.0314413 4.14545 -3.6975
0.0314409 4.97013 -2.90104
0.0314406 5.63672 -1.9203
0.0314403 6.10422 -0.787773
0.03144 0.0714716 0.00513011
0.0314397 0.261693 0.0728924
0.0314394 0.420159 0.214302
0.0314391 0.525767 0.41796
0.0314388 0.560963 0.667161
0.0314385 0.512971 0.940907
0.0314381 0.374756 1.21518
0.0314378 0.145662 1.46443
0.0314375 -0.168316 1.66316
0.0314372 -0.554648 1.78758
0.0314369 -0.994766 1.81719
0.0314366 -1.46493 1.7362
0.0314363 -1.93743 1.53474
0.031436 -2.38204 1.20981
0.0314357 -2.76767 0.765787
0.0314354 -3.06415 0.214648
0.031435 -3.24402 -0.424322
0.0314347 -3.28426 -1.12517
0.0314344 -3.16781 -1.85634
0.0314341 -2.8849 -2.58207
0.0314338 -2.43397 -3.26407
0.0314335 -1.8223 -3.86345
0.0314332 -1.06611 -4.34271
0.0314329 -0.19024 -4.66778
0.0314326 0.772615 -4.81
0.0314322 1.78313 -4.74786
0.0314319 2.79695 -4.46849
0.0314316 3.76663 -3.96882
0.0314313 4.64379 -3.25622
0.031431 5.38143 -2.34873
0.0314307 5.93632 -1.27478
0.0314304 6.27124 -0.0723097
0.0314301 0.185133 0.0353111
0.0314298 0.359525 0.147142
0.0314295 0.489484 0.326653
0.0314291 0.555817 0.559243
0.0314288 0.543627 0.825556
0.0314285 0.443394 1.10266
0.0314282 0.251754 1.36546
0.0314279 -0.0280729 1.58822
0.0314276 -0.386236 1.74627
0.0314273 -0.806594 1.81753
0.031427 -1.26743 1.7841
0.0314267 -1.74252 1.63352
0.0314263 -2.2025 1.35984
0.031426 -2.61641 0.964335
0.0314257 -2.9535 0.455816
0.0314254 -3.18497 -0.149413
0.0314251 -3.28573 -0.828065
0.0314248 -3.23609 -1.55076
0.0314245 -3.02308 -2.2833
0.0314242 -2.64167 -2.98823
0.0314239 -2.0954 -3.62665
0.0314236 -1.39678 -4.16025
0.0314232 -0.567144 -4.55329
0.0314229 0.363961 -4.77462
0.0314226 1.35979 -4.79956
0.0314223 2.37787 -4.6115
0.031422 3.37179 -4.20317
0.0314217 4.29326 -3.57755
