ply
format ascii 1.0 
element vertex 1620
property float32 x
property float32 y
property float32 z
end_header
0.00015058 -1.56135 1.70534
0.000150576 -1.57325 1.70119
0.000150573 -1.58515 1.69695
0.00015057 -1.59705 1.69264
0.000150567 -1.60894 1.68826
0.000150564 -1.62083 1.68379
0.00015056 -1.63271 1.67925
0.000150557 -1.64459 1.67463
0.000150554 -1.65647 1.66994
0.000150551 -1.66833 1.66517
0.000150548 -1.68019 1.66032
0.000150544 -1.69205 1.6554
0.000150541 -1.7039 1.65039
0.000150538 -1.71574 1.64531
0.000150535 -1.72757 1.64016
0.000150532 -1.73939 1.63492
0.000150528 -1.7512 1.62961
0.000150525 -1.76301 1.62422
0.000150522 -1.7748 1.61876
0.000150519 -1.78658 1.61322
0.000150516 -1.79835 1.60759
0.000150512 -1.81011 1.6019
0.000150509 -1.82186 1.59612
0.000150506 -1.8336 1.59027
0.000150503 -1.84532 1.58434
0.000150499 -1.85703 1.57833
0.000150496 -1.86872 1.57224
0.000150493 -1.8804 1.56608
0.00015049 -1.89207 1.55984
0.000150487 -1.90372 1.55352
0.000150483 -1.91535 1.54712
0.00015048 -1.92697 1.54065
0.000150477 -1.93857 1.5341
0.000150474 -1.95015 1.52747
0.000150471 -1.96171 1.52076
0.000150467 -1.97326 1.51398
0.000150464 -1.98479 1.50712
0.000150461 -1.99629 1.50018
0.000150458 -2.00778 1.49316
0.000150455 -2.01925 1.48607
0.000150451 -2.0307 1.4789
0.000150448 -2.04212 1.47165
0.000150445 -2.05353 1.46432
0.000150442 -2.06491 1.45692
0.000150439 -2.07627 1.44944
0.000150435 -2.0876 1.44188
0.000150432 -2.09891 1.43425
0.000150429 -2.1102 1.42653
0.000150426 -2.12146 1.41874
0.000150423 -2.1327 1.41088
0.000150419 -2.14391 1.40294
0.000150416 -2.1551 1.39491
0.000150413 -2.16625 1.38682
0.00015041 -2.17739 1.37864
0.000150407 -2.18849 1.37039
0.000150403 -2.19957 1.36207
0.0001504 -2.21061 1.35366
0.000150397 -2.22163 1.34518
0.000150394 -2.23262 1.33663
0.000150391 -2.24358 1.32799
0.000150387 -2.2545 1.31928
0.000150384 -2.2654 1.3105
0.000150381 -2.27626 1.30164
0.000150378 -2.2871 1.2927
0.000150375 -2.2979 1.28369
0.000150371 -2.30866 1.2746
0.000150368 -2.3194 1.26543
0.000150365 -2.3301 1.25619
0.000150362 -2.34076 1.24688
0.000150359 -2.35139 1.23749
0.000150355 -2.36198 1.22802
0.000150352 -2.37254 1.21848
0.000150349 -2.38306 1.20886
0.000150346 -2.39355 1.19917
0.000150343 -2.404 1.18941
0.000150339 -2.41441 1.17957
0.000150336 -2.42478 1.16965
0.000150333 -2.43511 1.15967
0.00015033 -2.4454 1.1496
0.000150327 -2.45566 1.13947
0.000150324 -2.46587 1.12926
0.00015032 -2.47604 1.11897
0.000150317 -2.48617 1.10861
0.000150314 -2.49626 1.09818
0.000150311 -2.50631 1.08768
0.000150308 -2.51631 1.0771
0.000150304 -2.52627 1.06645
0.000150301 -2.53619 1.05573
0.000150298 -2.54606 1.04493
0.000150295 -2.55589 1.03406
0.000150292 -2.56567 1.02312
0.000150288 -2.57541 1.01211
0.000150285 -2.5851 1.00103
0.000150282 -2.59474 0.98987
0.000150279 -2.60434 0.978643
0.000150276 -2.61389 0.967344
0.000150272 -2.62339 0.955975
0.000150269 -2.63284 0.944534
0.000150266 -2.64225 0.933023
0.000150263 -2.6516 0.921441
0.00015026 -2.66091 0.90979
0.000150256 -2.67016 0.898068
0.000150253 -2.67937 0.886276
0.00015025 -2.68852 0.874414
0.000150247 -2.69762 0.862484
0.000150244 -2.70667 0.850484
0.00015024 -2.71567 0.838415
0.000150237 -2.72461 0.826277
0.000150234 -2.7335 0.814071
0.000150231 -2.74233 0.801796
0.000150228 -2.75111 0.789454
0.000150225 -2.75984 0.777044
0.000150221 -2.76851 0.764566
0.000150218 -2.77712 0.752021
0.000150215 -2.78568 0.739408
0.000150212 -2.79418 0.726729
0.000150209 -2.80263 0.713984
0.000150205 -2.81101 0.701172
0.000150202 -2.81934 0.688294
0.000150199 -2.82761 0.67535
0.000150196 -2.83582 0.662341
0.000150193 -2.84397 0.649266
0.000150189 -2.85206 0.636127
0.000150186 -2.86009 0.622923
0.000150183 -2.86806 0.609654
0.00015018 -2.87597 0.596321
0.000150177 -2.88382 0.582925
0.000150173 -2.8916 0.569465
0.00015017 -2.89932 0.555941
0.000150167 -2.90698 0.542355
0.000150164 -2.91458 0.528706
0.000150161 -2.92211 0.514994
0.000150158 -2.92958 0.50122
0.000150154 -2.93698 0.487385
0.000150151 -2.94431 0.473488
0.000150148 -2.95159 0.459529
0.000150145 -2.95879 0.44551
0.000150142 -2.96593 0.43143
0.000150138 -2.973 0.41729
0.000150135 -2.98001 0.403091
0.000150132 -2.98694 0.388831
0.000150129 -2.99381 0.374512
0.000150126 -3.00061 0.360134
0.000150122 -3.00734 0.345698
0.000150119 -3.014 0.331203
0.000150116 -3.02059 0.31665
0.000150113 -3.02711 0.30204
0.00015011 -3.03356 0.287372
0.000150107 -3.03994 0.272647
0.000150103 -3.04625 0.257866
0.0001501 -3.05248 0.243028
0.000150097 -3.05865 0.228135
0.000150094 -3.06474 0.213186
0.000150091 -3.07076 0.198182
0.000150087 -3.0767 0.183123
0.000150084 -3.08257 0.168009
0.000150081 -3.08836 0.152841
0.000150078 -3.09408 0.13762
0.000150075 -3.09973 0.122345
0.000150071 -3.1053 0.107017
0.000150068 -3.11079 0.0916363
0.000150065 -3.11621 0.0762035
0.000150062 -3.12155 0.0607188
0.000150059 -3.12682 0.0451826
0.000150056 -3.132 0.0295952
0.000150052 -3.13711 0.0139572
0.000150049 -3.14214 -0.00173126
0.000150046 -3.1471 -0.0174696
0.000150043 -3.15197 -0.0332576
0.00015004 -3.15676 -0.0490947
0.000150036 -3.16148 -0.0649806
0.000150033 -3.16611 -0.0809148
0.00015003 -3.17066 -0.096897
0.000150027 -3.17514 -0.112927
0.000150024 -3.17953 -0.129004
0.000150021 -3.18384 -0.145127
0.000150017 -3.18807 -0.161297
0.000150014 -3.19221 -0.177513
0.000150011 -3.19628 -0.193774
0.000150008 -3.20026 -0.210081
0.000150005 -3.20415 -0.226432
0.000150001 -3.20797 -0.242827
0.000149998 -3.2117 -0.259266
0.000149995 -3.21534 -0.275749
0.000149992 -3.2189 -0.292274
0.000149989 -3.22238 -0.308842
0.000149986 -3.22577 -0.325452
0.000149982 -3.22907 -0.342103
0.000149979 -3.23229 -0.358796
0.000149976 -3.23542 -0.375529
0.000149973 -3.23847 -0.392303
0.00014997 -3.24143 -0.409116
0.000149966 -3.2443 -0.425969
0.000149963 -3.24708 -0.442861
0.00014996 -3.24978 -0.459791
0.000149957 -3.25239 -0.476759
0.000149954 -3.2549 -0.493765
0.000149951 -3.25733 -0.510808
0.000149947 -3.25968 -0.527888
0.000149944 -3.26193 -0.545003
0.000149941 -3.26409 -0.562155
0.000149938 -3.26616 -0.579341
0.000149935 -3.26814 -0.596563
0.000149931 -3.27003 -0.613818
0.000149928 -3.27183 -0.631108
0.000149925 -3.27354 -0.648431
0.000149922 -3.27516 -0.665786
0.000149919 -3.27668 -0.683174
0.000149916 -3.27811 -0.700594
0.000149912 -3.27945 -0.718045
0.000149909 -3.2807 -0.735527
0.000149906 -3.28186 -0.75304
0.000149903 -3.28292 -0.770582
0.0001499 -3.28389 -0.788154
0.000149896 -3.28476 -0.805754
0.000149893 -3.28554 -0.823384
0.00014989 -3.28623 -0.841041
0.000149887 -3.28682 -0.858725
0.000149884 -3.28732 -0.876436
0.000149881 -3.28772 -0.894174
0.000149877 -3.28802 -0.911938
0.000149874 -3.28823 -0.929727
0.000149871 -3.28835 -0.947541
0.000149868 -3.28837 -0.965379
0.000149865 -3.28829 -0.983241
0.000149862 -3.28812 -1.00113
0.000149858 -3.28784 -1.01903
0.000149855 -3.28748 -1.03697
0.000149852 -3.28701 -1.05492
0.000149849 -3.28645 -1.07289
0.000149846 -3.28579 -1.09089
0.000149843 -3.28503 -1.1089
0.000149839 -3.28417 -1.12693
0.000149836 -3.28322 -1.14499
0.000149833 -3.28217 -1.16306
0.00014983 -3.28101 -1.18115
0.000149827 -3.27976 -1.19926
0.000149823 -3.27841 -1.21738
0.00014982 -3.27696 -1.23552
0.000149817 -3.27542 -1.25368
0.000149814 -3.27377 -1.27185
0.000149811 -3.27202 -1.29004
0.000149808 -3.27017 -1.30824
0.000149804 -3.26822 -1.32645
0.000149801 -3.26617 -1.34468
0.000149798 -3.26402 -1.36292
0.000149795 -3.26177 -1.38117
0.000149792 -3.25942 -1.39944
0.000149789 -3.25696 -1.41771
0.000149785 -3.25441 -1.436
0.000149782 -3.25175 -1.45429
0.000149779 -3.249 -1.4726
0.000149776 -3.24614 -1.49091
0.000149773 -3.24317 -1.50923
0.00014977 -3.24011 -1.52756
0.000149766 -3.23694 -1.5459
0.000149763 -3.23367 -1.56424
0.00014976 -3.2303 -1.58259
0.000149757 -3.22683 -1.60094
0.000149754 -3.22325 -1.6193
0.00014975 -3.21957 -1.63766
0.000149747 -3.21579 -1.65603
0.000149744 -3.2119 -1.6744
0.000149741 -3.20791 -1.69277
0.000149738 -3.20382 -1.71115
0.000149735 -3.19962 -1.72952
0.000149731 -3.19532 -1.7479
0.000149728 -3.19091 -1.76627
0.000149725 -3.18641 -1.78465
0.000149722 -3.18179 -1.80302
0.000149719 -3.17708 -1.8214
0.000149716 -3.17225 -1.83977
0.000149712 -3.16733 -1.85814
0.000149709 -3.1623 -1.8765
0.000149706 -3.15716 -1.89486
0.000149703 -3.15192 -1.91322
0.0001497 -3.14658 -1.93157
0.000149697 -3.14113 -1.94992
0.000149693 -3.13558 -1.96826
0.00014969 -3.12992 -1.98659
0.000149687 -3.12415 -2.00491
0.000149684 -3.11828 -2.02323
0.000149681 -3.11231 -2.04154
0.000149678 -3.10623 -2.05984
0.000149674 -3.10005 -2.07813
0.000149671 -3.09376 -2.09641
0.000149668 -3.08736 -2.11467
0.000149665 -3.08086 -2.13293
0.000149662 -3.07425 -2.15118
0.000149659 -3.06754 -2.16941
0.000149655 -3.06072 -2.18762
0.000149652 -3.0538 -2.20583
0.000149649 -3.04677 -2.22402
0.000149646 -3.03964 -2.24219
0.000149643 -3.0324 -2.26035
0.00014964 -3.02505 -2.27849
0.000149636 -3.0176 -2.29662
0.000149633 -3.01004 -2.31472
0.00014963 -3.00238 -2.33281
0.000149627 -2.99461 -2.35088
0.000149624 -2.98674 -2.36893
0.000149621 -2.97876 -2.38696
0.000149617 -2.97067 -2.40497
0.000149614 -2.96248 -2.42296
0.000149611 -2.95418 -2.44093
0.000149608 -2.94578 -2.45887
0.000149605 -2.93727 -2.4768
0.000149602 -2.92865 -2.49469
0.000149598 -2.91993 -2.51257
0.000149595 -2.91111 -2.53041
0.000149592 -2.90218 -2.54824
0.000149589 -2.89314 -2.56603
0.000149586 -2.884 -2.5838
0.000149583 -2.87475 -2.60155
0.000149579 -2.8654 -2.61926
0.000149576 -2.85594 -2.63695
0.000149573 -2.84638 -2.6546
0.00014957 -2.83671 -2.67223
0.000149567 -2.82693 -2.68983
0.000149564 -2.81705 -2.70739
0.00014956 -2.80707 -2.72493
0.000149557 -2.79698 -2.74243
0.000149554 -2.78678 -2.7599
0.000149551 -2.77649 -2.77733
0.000149548 -2.76608 -2.79474
0.000149545 -2.75557 -2.8121
0.000149541 -2.74496 -2.82943
0.000149538 -2.73424 -2.84673
0.000149535 -2.72342 -2.86399
0.000149532 -2.71249 -2.88121
0.000149529 -2.70146 -2.89839
0.000149526 -2.69033 -2.91554
0.000149522 -2.67909 -2.93265
0.000149519 -2.66775 -2.94971
0.000149516 -2.6563 -2.96674
0.000149513 -2.64475 -2.98373
0.00014951 -2.63309 -3.00067
0.000149507 -2.62134 -3.01757
0.000149504 -2.60948 -3.03443
0.0001495 -2.59751 -3.05125
0.000149497 -2.58545 -3.06802
0.000149494 -2.57328 -3.08475
0.000149491 -2.561 -3.10143
0.000149488 -2.54863 -3.11807
0.000149485 -2.53615 -3.13466
0.000149481 -2.52357 -3.15121
0.000149478 -2.51089 -3.1677
0.000149475 -2.49811 -3.18415
0.000149472 -2.48522 -3.20055
0.000149469 -2.47224 -3.2169
0.000149466 -2.45915 -3.2332
0.000149462 -2.44596 -3.24945
0.000149459 -2.43267 -3.26565
0.000149456 -2.41928 -3.2818
0.000149453 -2.40578 -3.29789
0.00014945 -2.39219 -3.31394
0.000149447 -2.3785 -3.32992
0.000149443 -2.3647 -3.34586
0.00014944 -2.35081 -3.36174
0.000149437 -2.33682 -3.37756
0.000149434 -2.32272 -3.39333
0.000149431 -2.30853 -3.40904
0.000149428 -2.29424 -3.42469
0.000149425 -2.27985 -3.44029
0.000149421 -2.26536 -3.45583
0.000149418 -2.25077 -3.47131
0.000149415 -2.23609 -3.48673
0.000149412 -2.22131 -3.50209
0.000149409 -2.20642 -3.51738
0.000149406 -2.19145 -3.53262
0.000149402 -2.17637 -3.5478
0.000149399 -2.1612 -3.56291
0.000149396 -2.14593 -3.57796
0.000149393 -2.13056 -3.59294
0.00014939 -2.1151 -3.60786
0.000149387 -2.09954 -3.62272
0.000149384 -2.08389 -3.63751
0.00014938 -2.06814 -3.65224
0.000149377 -2.05229 -3.66689
0.000149374 -2.03635 -3.68149
0.000149371 -2.02032 -3.69601
0.000149368 -2.00419 -3.71046
0.000149365 -1.98796 -3.72485
0.000149361 -1.97165 -3.73916
0.000149358 -1.95524 -3.75341
0.000149355 -1.93873 -3.76759
0.000149352 -1.92214 -3.78169
0.000149349 -1.90545 -3.79572
0.000149346 -1.88867 -3.80968
0.000149342 -1.87179 -3.82357
0.000149339 -1.85483 -3.83738
0.000149336 -1.83777 -3.85112
0.000149333 -1.82062 -3.86478
0.00014933 -1.80338 -3.87837
0.000149327 -1.78606 -3.89188
0.000149324 -1.76864 -3.90532
0.00014932 -1.75113 -3.91868
0.000149317 -1.73353 -3.93196
0.000149314 -1.71584 -3.94516
0.000149311 -1.69807 -3.95829
0.000149308 -1.6802 -3.97134
0.000149305 -1.66225 -3.9843
0.000149301 -1.64421 -3.99719
0.000149298 -1.62608 -4.00999
0.000149295 -1.60787 -4.02271
0.000149292 -1.58957 -4.03536
0.000149289 -1.57118 -4.04791
0.000149286 -1.55271 -4.06039
0.000149283 -1.53415 -4.07278
0.000149279 -1.5155 -4.08509
0.000149276 -1.49677 -4.09731
0.000149273 -1.47796 -4.10945
0.00014927 -1.45906 -4.1215
0.000149267 -1.44008 -4.13347
0.000149264 -1.42102 -4.14534
0.000149261 -1.40187 -4.15714
0.000149257 -1.38264 -4.16884
0.000149254 -1.36333 -4.18045
0.000149251 -1.34394 -4.19198
0.000149248 -1.32447 -4.20342
0.000149245 -1.30491 -4.21476
0.000149242 -1.28528 -4.22602
0.000149238 -1.26556 -4.23718
0.000149235 -1.24577 -4.24825
0.000149232 -1.22589 -4.25924
0.000149229 -1.20594 -4.27012
0.000149226 -1.18591 -4.28092
0.000149223 -1.1658 -4.29162
0.00014922 -1.14562 -4.30223
0.000149216 -1.12535 -4.31274
0.000149213 -1.10501 -4.32316
0.00014921 -1.0846 -4.33348
0.000149207 -1.06411 -4.3437
0.000149204 -1.04354 -4.35383
0.000149201 -1.0229 -4.36386
0.000149198 -1.00218 -4.3738
0.000149194 -0.981394 -4.38363
0.000149191 -0.960532 -4.39337
0.000149188 -0.939597 -4.40301
0.000149185 -0.918589 -4.41254
0.000149182 -0.897509 -4.42198
0.000149179 -0.876359 -4.43132
0.000149175 -0.855137 -4.44055
0.000149172 -0.833844 -4.44969
0.000149169 -0.812482 -4.45872
0.000149166 -0.79105 -4.46765
0.000149163 -0.769549 -4.47648
0.00014916 -0.747979 -4.4852
0.000149157 -0.726342 -4.49382
0.000149153 -0.704637 -4.50234
0.00014915 -0.682865 -4.51075
0.000149147 -0.661026 -4.51905
0.000149144 -0.639122 -4.52725
0.000149141 -0.617152 -4.53535
0.000149138 -0.595117 -4.54333
0.000149135 -0.573018 -4.55121
0.000149131 -0.550854 -4.55898
0.000149128 -0.528627 -4.56665
0.000149125 -0.506338 -4.5742
0.000149122 -0.483986 -4.58165
0.000149119 -0.461572 -4.58899
0.000149116 -0.439097 -4.59622
0.000149113 -0.416561 -4.60333
0.000149109 -0.393965 -4.61034
0.000149106 -0.371309 -4.61724
0.000149103 -0.348594 -4.62402
0.0001491 -0.325821 -4.6307
0.000149097 -0.302989 -4.63726
0.000149094 -0.2801 -4.6437
0.000149091 -0.257155 -4.65004
0.000149087 -0.234152 -4.65626
0.000149084 -0.211094 -4.66237
0.000149081 -0.187981 -4.66836
0.000149078 -0.164813 -4.67424
0.000149075 -0.141591 -4.68
0.000149072 -0.118316 -4.68565
0.000149069 -0.0949876 -4.69118
0.000149065 -0.0716068 -4.6966
0.000149062 -0.0481742 -4.7019
0.000149059 -0.0246905 -4.70708
0.000149056 -0.00115611 -4.71214
0.000149053 0.0224283 -4.71709
0.00014905 0.0460621 -4.72192
0.000149047 0.0697448 -4.72663
0.000149043 0.0934758 -4.73122
0.00014904 0.117254 -4.73569
0.000149037 0.14108 -4.74004
0.000149034 0.164952 -4.74428
0.000149031 0.18887 -4.74839
0.000149028 0.212833 -4.75238
0.000149025 0.236841 -4.75625
0.000149021 0.260893 -4.76
0.000149018 0.284988 -4.76363
0.000149015 0.309126 -4.76713
0.000149012 0.333306 -4.77051
0.000149009 0.357528 -4.77377
0.000149006 0.381791 -4.77691
0.000149003 0.406094 -4.77992
0.000148999 0.430436 -4.78281
0.000148996 0.454818 -4.78558
0.000148993 0.479238 -4.78822
0.00014899 0.503696 -4.79074
0.000148987 0.528191 -4.79313
0.000148984 0.552722 -4.7954
0.000148981 0.57729 -4.79754
0.000148977 0.601892 -4.79955
0.000148974 0.626529 -4.80144
0.000148971 0.6512 -4.8032
0.000148968 0.675904 -4.80484
0.000148965 0.700641 -4.80634
0.000148962 0.72541 -4.80773
0.000148959 0.75021 -4.80898
0.000148956 0.775041 -4.8101
0.000148952 0.799902 -4.8111
0.000148949 0.824792 -4.81197
0.000148946 0.849711 -4.81271
0.000148943 0.874657 -4.81332
0.00014894 0.899632 -4.8138
0.000148937 0.924632 -4.81415
0.000148934 0.949659 -4.81437
0.00014893 0.974711 -4.81447
0.000148927 0.999788 -4.81443
0.000148924 1.02489 -4.81426
0.000148921 1.05001 -4.81396
0.000148918 1.07516 -4.81353
0.000148915 1.10033 -4.81297
0.000148912 1.12552 -4.81228
0.000148908 1.15073 -4.81145
0.000148905 1.17596 -4.81049
0.000148902 1.20121 -4.8094
0.000148899 1.22647 -4.80818
0.000148896 1.25176 -4.80683
0.000148893 1.27706 -4.80534
0.00014889 1.30238 -4.80372
0.000148887 1.32772 -4.80197
0.000148883 1.35307 -4.80008
0.00014888 1.37843 -4.79807
0.000148877 1.40381 -4.79591
0.000148874 1.4292 -4.79362
0.000148871 1.4546 -4.7912
0.000148868 1.48001 -4.78865
0.000148865 1.50544 -4.78596
0.000148861 1.53087 -4.78313
0.000148858 1.55632 -4.78017
0.000148855 1.58177 -4.77708
0.000148852 1.60723 -4.77385
0.000148849 1.6327 -4.77048
0.000148846 1.65818 -4.76698
0.000148843 1.68366 -4.76335
0.00014884 1.70914 -4.75957
0.000148836 1.73463 -4.75567
0.000148833 1.76012 -4.75162
0.00014883 1.78562 -4.74744
0.000148827 1.81112 -4.74313
0.000148824 1.83662 -4.73867
0.000148821 1.86212 -4.73408
0.000148818 1.88762 -4.72936
0.000148814 1.91312 -4.72449
0.000148811 1.93862 -4.71949
0.000148808 1.96411 -4.71436
0.000148805 1.98961 -4.70908
0.000148802 2.0151 -4.70367
0.000148799 2.04058 -4.69813
0.000148796 2.06606 -4.69244
0.000148793 2.09154 -4.68662
0.000148789 2.117 -4.68066
0.000148786 2.14246 -4.67456
0.000148783 2.16791 -4.66832
0.00014878 2.19336 -4.66195
0.000148777 2.21879 -4.65544
0.000148774 2.24421 -4.64879
0.000148771 2.26963 -4.642
0.000148767 2.29503 -4.63508
0.000148764 2.32041 -4.62801
0.000148761 2.34579 -4.62081
0.000148758 2.37115 -4.61347
0.000148755 2.39649 -4.60599
0.000148752 2.42182 -4.59838
0.000148749 2.44714 -4.59062
0.000148746 2.47243 -4.58273
0.000148742 2.49771 -4.5747
0.000148739 2.52297 -4.56653
0.000148736 2.54821 -4.55822
0.000148733 2.57343 -4.54978
0.00014873 2.59863 -4.54119
0.000148727 2.62381 -4.53247
0.000148724 2.64897 -4.52361
0.000148721 2.6741 -4.51461
0.000148717 2.69921 -4.50547
0.000148714 2.7243 -4.4962
0.000148711 2.74935 -4.48678
0.000148708 2.77439 -4.47723
0.000148705 2.79939 -4.46754
0.000148702 2.82437 -4.45771
0.000148699 2.84932 -4.44774
0.000148696 2.87424 -4.43764
0.000148692 2.89914 -4.42739
0.000148689 2.924 -4.41701
0.000148686 2.94883 -4.40649
0.000148683 2.97362 -4.39583
0.00014868 2.99839 -4.38504
0.000148677 3.02312 -4.3741
0.000148674 3.04781 -4.36303
0.000148671 3.07247 -4.35182
0.000148667 3.0971 -4.34048
0.000148664 3.12169 -4.32899
0.000148661 3.14624 -4.31737
0.000148658 3.17075 -4.30561
0.000148655 3.19522 -4.29372
0.000148652 3.21966 -4.28168
0.000148649 3.24405 -4.26951
0.000148646 3.2684 -4.2572
0.000148642 3.29271 -4.24476
0.000148639 3.31698 -4.23218
0.000148636 3.3412 -4.21946
0.000148633 3.36538 -4.20661
0.00014863 3.38951 -4.19362
0.000148627 3.4136 -4.18049
0.000148624 3.43764 -4.16723
0.000148621 3.46164 -4.15383
0.000148617 3.48558 -4.14029
0.000148614 3.50948 -4.12662
0.000148611 3.53333 -4.11281
0.000148608 3.55712 -4.09887
0.000148605 3.58087 -4.0848
0.000148602 3.60456 -4.07058
0.000148599 3.62821 -4.05624
0.000148596 3.65179 -4.04175
0.000148592 3.67533 -4.02714
0.000148589 3.69881 -4.01239
0.000148586 3.72223 -3.9975
0.000148583 3.74559 -3.98248
0.00014858 3.7689 -3.96733
0.000148577 3.79216 -3.95205
0.000148574 3.81535 -3.93663
0.000148571 3.83848 -3.92107
0.000148567 3.86155 -3.90539
0.000148564 3.88457 -3.88957
0.000148561 3.90752 -3.87362
0.000148558 3.9304 -3.85753
0.000148555 3.95323 -3.84132
0.000148552 3.97599 -3.82497
0.000148549 3.99868 -3.80849
0.000148546 4.02131 -3.79188
0.000148542 4.04388 -3.77514
0.000148539 4.06637 -3.75827
0.000148536 4.0888 -3.74126
0.000148533 4.11116 -3.72413
0.00014853 4.13346 -3.70686
0.000148527 4.15568 -3.68947
0.000148524 4.17783 -3.67195
0.000148521 4.19991 -3.65429
0.000148518 4.22192 -3.63651
0.000148514 4.24385 -3.6186
0.000148511 4.26571 -3.60056
0.000148508 4.2875 -3.58239
0.000148505 4.30921 -3.5641
0.000148502 4.33084 -3.54567
0.000148499 4.3524 -3.52712
0.000148496 4.37388 -3.50845
0.000148493 4.39529 -3.48964
0.000148489 4.41661 -3.47071
0.000148486 4.43786 -3.45166
0.000148483 4.45902 -3.43247
0.00014848 4.48011 -3.41317
0.000148477 4.50111 -3.39373
0.000148474 4.52203 -3.37417
0.000148471 4.54286 -3.35449
0.000148468 4.56362 -3.33469
0.000148465 4.58428 -3.31476
0.000148461 4.60487 -3.2947
0.000148458 4.62536 -3.27453
0.000148455 4.64577 -3.25423
0.000148452 4.6661 -3.23381
0.000148449 4.68633 -3.21326
0.000148446 4.70648 -3.1926
0.000148443 4.72653 -3.17181
0.00014844 4.7465 -3.15091
0.000148436 4.76637 -3.12988
0.000148433 4.78616 -3.10873
0.00014843 4.80585 -3.08746
0.000148427 4.82544 -3.06608
0.000148424 4.84495 -3.04457
0.000148421 4.86436 -3.02295
0.000148418 4.88367 -3.00121
0.000148415 4.90289 -2.97935
0.000148412 4.92201 -2.95737
0.000148408 4.94103 -2.93528
0.000148405 4.95996 -2.91307
0.000148402 4.97879 -2.89074
0.000148399 4.99751 -2.8683
0.000148396 5.01614 -2.84575
0.000148393 5.03467 -2.82308
0.00014839 5.05309 -2.80029
0.000148387 5.07142 -2.77739
0.000148384 5.08964 -2.75438
0.00014838 5.10776 -2.73125
0.000148377 5.12577 -2.70802
0.000148374 5.14368 -2.68467
0.000148371 5.16148 -2.66121
0.000148368 5.17918 -2.63764
0.000148365 5.19677 -2.61395
0.000148362 5.21425 -2.59016
0.000148359 5.23163 -2.56626
0.000148355 5.24889 -2.54225
0.000148352 5.26605 -2.51813
0.000148349 5.28309 -2.4939
0.000148346 5.30003 -2.46957
0.000148343 5.31685 -2.44513
0.00014834 5.33357 -2.42058
0.000148337 5.35017 -2.39592
0.000148334 5.36665 -2.37116
0.000148331 5.38302 -2.3463
0.000148327 5.39928 -2.32133
0.000148324 5.41542 -2.29626
0.000148321 5.43145 -2.27108
0.000148318 5.44736 -2.2458
0.000148315 5.46315 -2.22042
0.000148312 5.47883 -2.19493
0.000148309 5.49439 -2.16935
0.000148306 5.50982 -2.14366
0.000148303 5.52514 -2.11788
0.000148299 5.54034 -2.09199
0.000148296 5.55542 -2.06601
0.000148293 5.57037 -2.03992
0.00014829 5.58521 -2.01374
0.000148287 5.59992 -1.98746
0.000148284 5.6145 -1.96109
0.000148281 5.62897 -1.93462
0.000148278 5.64331 -1.90805
0.000148275 5.65752 -1.88139
0.000148272 5.67161 -1.85463
0.000148268 5.68557 -1.82778
0.000148265 5.69941 -1.80083
0.000148262 5.71312 -1.7738
0.000148259 5.7267 -1.74667
0.000148256 5.74015 -1.71945
0.000148253 5.75347 -1.69214
0.00014825 5.76666 -1.66473
0.000148247 5.77972 -1.63724
0.000148244 5.79266 -1.60966
0.00014824 5.80546 -1.58199
0.000148237 5.81812 -1.55424
0.000148234 5.83066 -1.52639
0.000148231 5.84306 -1.49846
0.000148228 5.85533 -1.47045
0.000148225 5.86746 -1.44235
0.000148222 5.87946 -1.41416
0.000148219 5.89133 -1.38589
0.000148216 5.90306 -1.35754
0.000148212 5.91465 -1.3291
0.000148209 5.9261 -1.30058
0.000148206 5.93742 -1.27198
0.000148203 5.9486 -1.2433
0.0001482 5.95964 -1.21454
0.000148197 5.97055 -1.1857
0.000148194 5.98131 -1.15679
0.000148191 5.99193 -1.12779
0.000148188 6.00241 -1.09872
0.000148184 6.01276 -1.06957
0.000148181 6.02296 -1.04034
0.000148178 6.03301 -1.01104
0.000148175 6.04293 -0.981664
0.000148172 6.0527 -0.952214
0.000148169 6.06233 -0.922692
0.000148166 6.07181 -0.893096
0.000148163 6.08115 -0.863429
0.00014816 6.09035 -0.833691
0.000148157 6.0994 -0.803882
0.000148153 6.1083 -0.774004
0.00014815 6.11706 -0.744056
0.000148147 6.12567 -0.714041
0.000148144 6.13413 -0.683958
0.000148141 6.14245 -0.653808
0.000148138 6.15061 -0.623592
0.000148135 6.15863 -0.593311
0.000148132 6.1665 -0.562965
0.000148129 6.17422 -0.532555
0.000148126 6.18179 -0.502082
0.000148122 6.18921 -0.471547
0.000148119 6.19647 -0.44095
0.000148116 6.20359 -0.410292
0.000148113 6.21056 -0.379574
0.00014811 6.21737 -0.348797
0.000148107 6.22403 -0.317961
0.000148104 6.23053 -0.287067
0.000148101 6.23689 -0.256116
0.000148098 6.24309 -0.225109
0.000148094 6.24913 -0.194046
0.000148091 6.25502 -0.162928
0.000148088 6.26076 -0.131756
0.000148085 6.26634 -0.100531
0.000148082 6.27176 -0.0692536
0.000148079 6.27703 -0.0379242
0.000148076 6.28214 -0.00654394
0.000148073 0.0039583 1.56683e-05
0.00014807 0.00895797 8.02506e-05
0.000148067 0.013957 0.000194829
0.000148063 0.0189549 0.000359397
0.00014806 0.0239515 0.000573947
0.000148057 0.0289462 0.000838468
0.000148054 0.0339387 0.00115295
0.000148051 0.0389288 0.00151737
0.000148048 0.0439159 0.00193171
0.000148045 0.0488997 0.00239596
0.000148042 0.0538798 0.00291009
0.000148039 0.0588559 0.00347407
0.000148036 0.0638276 0.00408788
0.000148032 0.0687944 0.00475148
0.000148029 0.0737561 0.00546485
0.000148026 0.0787123 0.00622794
0.000148023 0.0836626 0.00704072
0.00014802 0.0886066 0.00790315
0.000148017 0.0935439 0.00881518
0.000148014 0.0984742 0.00977678
0.000148011 0.103397 0.0107879
0.000148008 0.108312 0.0118484
0.000148005 0.113219 0.0129584
0.000148002 0.118118 0.0141177
0.000147998 0.123007 0.0153263
0.000147995 0.127888 0.0165842
0.000147992 0.132758 0.0178912
0.000147989 0.137619 0.0192473
0.000147986 0.142469 0.0206525
0.000147983 0.147309 0.0221066
0.00014798 0.152137 0.0236096
0.000147977 0.156954 0.0251615
0.000147974 0.161759 0.0267621
0.000147971 0.166552 0.0284113
0.000147967 0.171333 0.0301091
0.000147964 0.1761 0.0318554
0.000147961 0.180854 0.0336501
0.000147958 0.185595 0.0354932
0.000147955 0.190321 0.0373844
0.000147952 0.195033 0.0393238
0.000147949 0.199731 0.0413112
0.000147946 0.204413 0.0433465
0.000147943 0.20908 0.0454297
0.00014794 0.213731 0.0475606
0.000147936 0.218365 0.0497391
0.000147933 0.222983 0.0519651
0.00014793 0.227584 0.0542385
0.000147927 0.232168 0.0565592
0.000147924 0.236735 0.0589271
0.000147921 0.241283 0.061342
0.000147918 0.245813 0.0638038
0.000147915 0.250324 0.0663124
0.000147912 0.254816 0.0688677
0.000147909 0.259289 0.0714696
0.000147906 0.263742 0.0741179
0.000147902 0.268175 0.0768124
0.000147899 0.272587 0.0795531
0.000147896 0.276978 0.0823398
0.000147893 0.281349 0.0851724
0.00014789 0.285698 0.0880507
0.000147887 0.290025 0.0909745
0.000147884 0.294329 0.0939439
0.000147881 0.298612 0.0969585
0.000147878 0.302871 0.100018
0.000147875 0.307107 0.103123
0.000147872 0.311319 0.106272
0.000147868 0.315508 0.109467
0.000147865 0.319672 0.112705
0.000147862 0.323812 0.115988
0.000147859 0.327926 0.119316
0.000147856 0.332016 0.122687
0.000147853 0.336079 0.126102
0.00014785 0.340117 0.12956
0.000147847 0.344129 0.133063
0.000147844 0.348114 0.136608
0.000147841 0.352071 0.140197
0.000147838 0.356002 0.143828
0.000147834 0.359905 0.147503
0.000147831 0.36378 0.15122
0.000147828 0.367627 0.154979
0.000147825 0.371445 0.15878
0.000147822 0.375234 0.162624
0.000147819 0.378994 0.166509
0.000147816 0.382724 0.170436
0.000147813 0.386424 0.174404
0.00014781 0.390094 0.178414
0.000147807 0.393734 0.182465
0.000147804 0.397343 0.186556
0.0001478 0.40092 0.190688
0.000147797 0.404466 0.19486
0.000147794 0.407981 0.199073
0.000147791 0.411463 0.203325
0.000147788 0.414912 0.207617
0.000147785 0.418329 0.211949
0.000147782 0.421713 0.21632
0.000147779 0.425064 0.22073
0.000147776 0.428381 0.225179
0.000147773 0.431663 0.229667
0.00014777 0.434912 0.234193
0.000147766 0.438126 0.238757
0.000147763 0.441305 0.243359
0.00014776 0.444449 0.247999
0.000147757 0.447558 0.252676
0.000147754 0.45063 0.257391
0.000147751 0.453667 0.262142
0.000147748 0.456667 0.266931
0.000147745 0.459631 0.271755
0.000147742 0.462558 0.276616
0.000147739 0.465447 0.281513
0.000147736 0.468299 0.286446
0.000147732 0.471113 0.291414
0.000147729 0.473889 0.296417
0.000147726 0.476627 0.301456
0.000147723 0.479326 0.306529
0.00014772 0.481986 0.311637
0.000147717 0.484607 0.316778
0.000147714 0.487189 0.321954
0.000147711 0.48973 0.327163
0.000147708 0.492232 0.332406
0.000147705 0.494694 0.337682
0.000147702 0.497115 0.342991
0.000147699 0.499495 0.348332
0.000147695 0.501834 0.353706
0.000147692 0.504131 0.359112
0.000147689 0.506387 0.364549
0.000147686 0.508601 0.370018
0.000147683 0.510773 0.375518
0.00014768 0.512903 0.381049
0.000147677 0.51499 0.38661
0.000147674 0.517034 0.392202
0.000147671 0.519035 0.397824
0.000147668 0.520993 0.403476
0.000147665 0.522906 0.409157
0.000147662 0.524776 0.414867
0.000147658 0.526602 0.420606
0.000147655 0.528384 0.426374
0.000147652 0.530121 0.43217
0.000147649 0.531813 0.437994
0.000147646 0.53346 0.443845
0.000147643 0.535062 0.449724
0.00014764 0.536618 0.45563
0.000147637 0.538128 0.461563
0.000147634 0.539592 0.467522
0.000147631 0.541011 0.473507
0.000147628 0.542382 0.479518
0.000147625 0.543707 0.485554
0.000147621 0.544985 0.491616
0.000147618 0.546216 0.497702
0.000147615 0.5474 0.503813
0.000147612 0.548536 0.509948
0.000147609 0.549624 0.516107
0.000147606 0.550665 0.522289
0.000147603 0.551657 0.528495
0.0001476 0.552601 0.534724
0.000147597 0.553496 0.540975
0.000147594 0.554342 0.547248
0.000147591 0.55514 0.553544
0.000147588 0.555888 0.55986
0.000147584 0.556587 0.566198
0.000147581 0.557236 0.572557
0.000147578 0.557836 0.578937
0.000147575 0.558386 0.585337
0.000147572 0.558885 0.591756
0.000147569 0.559334 0.598196
0.000147566 0.559733 0.604654
0.000147563 0.560081 0.611131
0.00014756 0.560378 0.617627
0.000147557 0.560624 0.624141
0.000147554 0.560819 0.630673
0.000147551 0.560962 0.637222
0.000147548 0.561054 0.643788
0.000147544 0.561094 0.650371
0.000147541 0.561083 0.65697
0.000147538 0.561019 0.663586
0.000147535 0.560903 0.670217
0.000147532 0.560735 0.676864
0.000147529 0.560514 0.683525
0.000147526 0.56024 0.690201
0.000147523 0.559914 0.696892
0.00014752 0.559535 0.703596
0.000147517 0.559102 0.710314
0.000147514 0.558617 0.717044
0.000147511 0.558077 0.723788
0.000147508 0.557485 0.730544
0.000147504 0.556838 0.737313
0.000147501 0.556138 0.744093
0.000147498 0.555384 0.750884
0.000147495 0.554576 0.757686
0.000147492 0.553714 0.764499
0.000147489 0.552797 0.771322
0.000147486 0.551826 0.778155
0.000147483 0.5508 0.784997
0.00014748 0.549719 0.791849
0.000147477 0.548584 0.798709
0.000147474 0.547394 0.805577
0.000147471 0.546148 0.812454
0.000147468 0.544848 0.819338
0.000147464 0.543492 0.826229
0.000147461 0.542081 0.833127
0.000147458 0.540615 0.840032
0.000147455 0.539093 0.846942
0.000147452 0.537515 0.853859
0.000147449 0.535882 0.86078
0.000147446 0.534192 0.867707
0.000147443 0.532447 0.874638
0.00014744 0.530646 0.881573
0.000147437 0.528788 0.888512
0.000147434 0.526875 0.895454
0.000147431 0.524905 0.902399
0.000147428 0.522879 0.909347
0.000147424 0.520796 0.916297
0.000147421 0.518657 0.923248
0.000147418 0.516462 0.930201
0.000147415 0.514209 0.937156
0.000147412 0.5119 0.94411
0.000147409 0.509535 0.951065
0.000147406 0.507112 0.95802
0.000147403 0.504633 0.964975
0.0001474 0.502096 0.971928
0.000147397 0.499503 0.97888
0.000147394 0.496853 0.98583
0.000147391 0.494146 0.992778
0.000147388 0.491381 0.999724
0.000147385 0.488559 1.00667
0.000147381 0.485681 1.01361
0.000147378 0.482744 1.02054
0.000147375 0.479751 1.02747
0.000147372 0.476701 1.0344
0.000147369 0.473593 1.04132
0.000147366 0.470427 1.04824
0.000147363 0.467205 1.05515
0.00014736 0.463924 1.06205
0.000147357 0.460587 1.06895
0.000147354 0.457192 1.07584
0.000147351 0.45374 1.08273
0.000147348 0.45023 1.0896
0.000147345 0.446662 1.09647
0.000147342 0.443038 1.10333
0.000147338 0.439355 1.11018
0.000147335 0.435616 1.11702
0.000147332 0.431818 1.12385
0.000147329 0.427964 1.13068
0.000147326 0.424052 1.13749
0.000147323 0.420082 1.14429
0.00014732 0.416055 1.15107
0.000147317 0.411971 1.15785
0.000147314 0.407829 1.16462
0.000147311 0.403629 1.17137
0.000147308 0.399373 1.17811
0.000147305 0.395059 1.18483
0.000147302 0.390688 1.19154
0.000147299 0.386259 1.19824
0.000147296 0.381773 1.20492
0.000147292 0.37723 1.21159
0.000147289 0.37263 1.21824
0.000147286 0.367973 1.22488
0.000147283 0.363259 1.2315
0.00014728 0.358487 1.2381
0.000147277 0.353659 1.24469
0.000147274 0.348773 1.25126
0.000147271 0.343831 1.25781
0.000147268 0.338832 1.26434
0.000147265 0.333776 1.27086
0.000147262 0.328664 1.27735
0.000147259 0.323495 1.28383
0.000147256 0.318269 1.29028
0.000147253 0.312987 1.29672
0.000147249 0.307648 1.30314
0.000147246 0.302253 1.30953
0.000147243 0.296802 1.3159
0.00014724 0.291294 1.32225
0.000147237 0.285731 1.32858
0.000147234 0.280111 1.33489
0.000147231 0.274436 1.34117
0.000147228 0.268704 1.34743
0.000147225 0.262917 1.35366
0.000147222 0.257074 1.35987
0.000147219 0.251176 1.36606
0.000147216 0.245222 1.37222
0.000147213 0.239213 1.37835
0.00014721 0.233148 1.38446
0.000147207 0.227029 1.39055
0.000147204 0.220854 1.3966
0.0001472 0.214625 1.40263
0.000147197 0.208341 1.40863
0.000147194 0.202002 1.41461
0.000147191 0.195608 1.42055
0.000147188 0.18916 1.42647
0.000147185 0.182658 1.43236
0.000147182 0.176102 1.43822
0.000147179 0.169491 1.44405
0.000147176 0.162827 1.44984
0.000147173 0.156109 1.45561
0.00014717 0.149337 1.46135
0.000147167 0.142512 1.46705
0.000147164 0.135634 1.47273
0.000147161 0.128702 1.47837
0.000147158 0.121717 1.48397
0.000147154 0.11468 1.48955
0.000147151 0.10759 1.49509
0.000147148 0.100447 1.5006
0.000147145 0.0932515 1.50607
0.000147142 0.086004 1.51151
0.000147139 0.0787045 1.51692
0.000147136 0.0713531 1.52229
0.000147133 0.0639499 1.52762
0.00014713 0.0564952 1.53292
0.000147127 0.0489891 1.53818
0.000147124 0.0414318 1.5434
0.000147121 0.0338235 1.54859
0.000147118 0.0261643 1.55374
0.000147115 0.0184545 1.55885
0.000147112 0.0106943 1.56392
0.000147109 0.00288374 1.56896
0.000147106 -0.00497685 1.57395
0.000147102 -0.0128873 1.57891
0.000147099 -0.0208475 1.58382
0.000147096 -0.0288571 1.5887
0.000147093 -0.036916 1.59353
0.00014709 -0.0450239 1.59832
0.000147087 -0.0531807 1.60308
0.000147084 -0.0613862 1.60779
0.000147081 -0.06964 1.61246
0.000147078 -0.0779421 1.61708
0.000147075 -0.0862922 1.62166
0.000147072 -0.0946901 1.6262
0.000147069 -0.103135 1.6307
0.000147066 -0.111628 1.63515
0.000147063 -0.120168 1.63956
0.00014706 -0.128755 1.64392
0.000147057 -0.137388 1.64824
0.000147054 -0.146068 1.65252
0.00014705 -0.154794 1.65674
0.000147047 -0.163565 1.66092
0.000147044 -0.172383 1.66506
0.000147041 -0.181246 1.66915
0.000147038 -0.190154 1.67319
0.000147035 -0.199107 1.67718
0.000147032 -0.208104 1.68113
0.000147029 -0.217146 1.68502
0.000147026 -0.226233 1.68887
0.000147023 -0.235363 1.69267
0.00014702 -0.244536 1.69642
0.000147017 -0.253754 1.70013
0.000147014 -0.263014 1.70378
0.000147011 -0.272317 1.70738
0.000147008 -0.281662 1.71093
0.000147005 -0.29105 1.71443
0.000147002 -0.30048 1.71788
0.000146998 -0.309952 1.72127
0.000146995 -0.319465 1.72462
0.000146992 -0.32902 1.72791
0.000146989 -0.338615 1.73115
0.000146986 -0.348251 1.73434
0.000146983 -0.357927 1.73747
0.00014698 -0.367643 1.74055
0.000146977 -0.377399 1.74358
0.000146974 -0.387194 1.74655
0.000146971 -0.397029 1.74947
0.000146968 -0.406902 1.75234
0.000146965 -0.416814 1.75514
0.000146962 -0.426764 1.7579
0.000146959 -0.436752 1.76059
0.000146956 -0.446777 1.76324
0.000146953 -0.45684 1.76582
0.00014695 -0.46694 1.76835
0.000146947 -0.477077 1.77082
0.000146943 -0.48725 1.77323
0.00014694 -0.497459 1.77559
0.000146937 -0.507703 1.77789
0.000146934 -0.517983 1.78013
0.000146931 -0.528298 1.78231
0.000146928 -0.538648 1.78443
0.000146925 -0.549032 1.7865
0.000146922 -0.559451 1.7885
0.000146919 -0.569903 1.79045
0.000146916 -0.580388 1.79233
0.000146913 -0.590906 1.79416
0.00014691 -0.601458 1.79592
0.000146907 -0.612041 1.79762
0.000146904 -0.622657 1.79927
0.000146901 -0.633304 1.80085
0.000146898 -0.643983 1.80237
0.000146895 -0.654692 1.80382
0.000146892 -0.665433 1.80522
0.000146889 -0.676203 1.80655
0.000146885 -0.687003 1.80782
0.000146882 -0.697833 1.80903
0.000146879 -0.708693 1.81017
0.000146876 -0.719581 1.81125
0.000146873 -0.730497 1.81227
0.00014687 -0.741442 1.81322
0.000146867 -0.752414 1.81411
0.000146864 -0.763414 1.81494
0.000146861 -0.774441 1.8157
0.000146858 -0.785494 1.81639
0.000146855 -0.796574 1.81702
0.000146852 -0.807679 1.81758
0.000146849 -0.81881 1.81808
0.000146846 -0.829966 1.81851
0.000146843 -0.841147 1.81888
0.00014684 -0.852352 1.81918
0.000146837 -0.863582 1.81941
0.000146834 -0.874834 1.81958
0.000146831 -0.88611 1.81967
0.000146828 -0.897409 1.81971
0.000146825 -0.90873 1.81967
0.000146821 -0.920073 1.81956
0.000146818 -0.931438 1.81939
0.000146815 -0.942824 1.81915
0.000146812 -0.954231 1.81884
0.000146809 -0.965658 1.81846
0.000146806 -0.977106 1.81802
0.000146803 -0.988573 1.8175
0.0001468 -1.00006 1.81692
0.000146797 -1.01156 1.81626
0.000146794 -1.02309 1.81554
0.000146791 -1.03463 1.81474
0.000146788 -1.04619 1.81388
0.000146785 -1.05776 1.81294
0.000146782 -1.06936 1.81194
0.000146779 -1.08096 1.81086
0.000146776 -1.09259 1.80971
0.000146773 -1.10423 1.8085
0.00014677 -1.11589 1.80721
0.000146767 -1.12756 1.80585
0.000146764 -1.13924 1.80441
0.000146761 -1.15094 1.80291
0.000146757 -1.16265 1.80133
0.000146754 -1.17437 1.79968
0.000146751 -1.18611 1.79796
0.000146748 -1.19786 1.79617
0.000146745 -1.20962 1.79431
0.000146742 -1.22139 1.79237
0.000146739 -1.23318 1.79035
0.000146736 -1.24497 1.78827
0.000146733 -1.25677 1.78611
0.00014673 -1.26859 1.78388
0.000146727 -1.28041 1.78158
0.000146724 -1.29224 1.7792
0.000146721 -1.30408 1.77674
0.000146718 -1.31592 1.77422
0.000146715 -1.32777 1.77162
0.000146712 -1.33963 1.76894
0.000146709 -1.3515 1.76619
0.000146706 -1.36337 1.76337
0.000146703 -1.37525 1.76047
0.0001467 -1.38713 1.7575
0.000146697 -1.39902 1.75445
0.000146694 -1.41091 1.75132
0.00014669 -1.42281 1.74813
0.000146687 -1.43471 1.74485
0.000146684 -1.44661 1.7415
0.000146681 -1.45851 1.73808
0.000146678 -1.47042 1.73458
0.000146675 -1.48232 1.731
0.000146672 -1.49423 1.72735
0.000146669 -1.50614 1.72362
0.000146666 -1.51805 1.71982
0.000146663 -1.52995 1.71594
0.00014666 -1.54186 1.71198
0.000146657 -1.55377 1.70795
0.000146654 -1.56567 1.70384
0.000146651 -1.57757 1.69966
0.000146648 -1.58947 1.6954
0.000146645 -1.60136 1.69106
0.000146642 -1.61326 1.68664
0.000146639 -1.62514 1.68215
0.000146636 -1.63702 1.67758
0.000146633 -1.6489 1.67294
0.00014663 -1.66077 1.66822
0.000146627 -1.67264 1.66342
0.000146624 -1.6845 1.65854
0.000146621 -1.69635 1.65359
0.000146617 -1.70819 1.64856
0.000146614 -1.72003 1.64345
0.000146611 -1.73186 1.63827
0.000146608 -1.74368 1.63301
0.000146605 -1.75549 1.62767
0.000146602 -1.76729 1.62225
0.000146599 -1.77908 1.61676
0.000146596 -1.79086 1.61118
0.000146593 -1.80262 1.60554
0.00014659 -1.81438 1.59981
0.000146587 -1.82612 1.59401
0.000146584 -1.83785 1.58812
0.000146581 -1.84957 1.58217
0.000146578 -1.86127 1.57613
0.000146575 -1.87296 1.57001
0.000146572 -1.88464 1.56382
0.000146569 -1.8963 1.55755
0.000146566 -1.90794 1.55121
0.000146563 -1.91957 1.54478
0.00014656 -1.93118 1.53828
0.000146557 -1.94277 1.5317
0.000146554 -1.95435 1.52504
0.000146551 -1.96591 1.51831
0.000146548 -1.97744 1.5115
0.000146545 -1.98896 1.50461
0.000146542 -2.00047 1.49764
0.000146538 -2.01195 1.4906
0.000146535 -2.02341 1.48348
0.000146532 -2.03485 1.47628
0.000146529 -2.04626 1.469
0.000146526 -2.05766 1.46164
0.000146523 -2.06903 1.45421
0.00014652 -2.08038 1.4467
0.000146517 -2.09171 1.43912
0.000146514 -2.10301 1.43146
0.000146511 -2.11429 1.42372
0.000146508 -2.12554 1.4159
0.000146505 -2.13677 1.408
0.000146502 -2.14797 1.40003
0.000146499 -2.15915 1.39198
0.000146496 -2.1703 1.38386
0.000146493 -2.18142 1.37566
0.00014649 -2.19251 1.36738
0.000146487 -2.20358 1.35903
0.000146484 -2.21461 1.35059
0.000146481 -2.22562 1.34209
0.000146478 -2.2366 1.3335
0.000146475 -2.24755 1.32484
0.000146472 -2.25846 1.3161
0.000146469 -2.26935 1.30729
0.000146466 -2.2802 1.2984
0.000146463 -2.29102 1.28944
0.00014646 -2.30181 1.2804
0.000146457 -2.31256 1.27128
0.000146454 -2.32328 1.26209
0.00014645 -2.33397 1.25282
0.000146447 -2.34462 1.24348
0.000146444 -2.35524 1.23406
0.000146441 -2.36582 1.22457
0.000146438 -2.37637 1.215
0.000146435 -2.38687 1.20536
0.000146432 -2.39735 1.19564
0.000146429 -2.40778 1.18585
0.000146426 -2.41818 1.17598
0.000146423 -2.42853 1.16604
0.00014642 -2.43885 1.15602
0.000146417 -2.44913 1.14593
0.000146414 -2.45937 1.13577
0.000146411 -2.46956 1.12553
0.000146408 -2.47972 1.11522
0.000146405 -2.48984 1.10484
0.000146402 -2.49991 1.09438
0.000146399 -2.50994 1.08385
0.000146396 -2.51993 1.07324
0.000146393 -2.52987 1.06257
0.00014639 -2.53977 1.05182
0.000146387 -2.54963 1.04099
0.000146384 -2.55944 1.0301
0.000146381 -2.56921 1.01913
0.000146378 -2.57893 1.0081
0.000146375 -2.5886 0.996985
0.000146372 -2.59823 0.985803
0.000146369 -2.60781 0.97455
0.000146366 -2.61734 0.963226
0.000146363 -2.62683 0.951831
0.00014636 -2.63626 0.940365
0.000146356 -2.64565 0.928828
0.000146353 -2.65499 0.917221
0.00014635 -2.66427 0.905543
0.000146347 -2.67351 0.893796
0.000146344 -2.6827 0.881979
0.000146341 -2.69183 0.870092
0.000146338 -2.70091 0.858136
0.000146335 -2.70994 0.846111
0.000146332 -2.71892 0.834017
0.000146329 -2.72784 0.821855
0.000146326 -2.73671 0.809624
0.000146323 -2.74553 0.797325
0.00014632 -2.75429 0.784958
0.000146317 -2.76299 0.772523
0.000146314 -2.77164 0.76002
0.000146311 -2.78024 0.747451
0.000146308 -2.78877 0.734814
0.000146305 -2.79726 0.722111
0.000146302 -2.80568 0.709341
0.000146299 -2.81404 0.696506
0.000146296 -2.82235 0.683604
0.000146293 -2.8306 0.670636
0.00014629 -2.83879 0.657603
0.000146287 -2.84692 0.644505
0.000146284 -2.85499 0.631342
0.000146281 -2.86299 0.618115
0.000146278 -2.87094 0.604823
0.000146275 -2.87883 0.591467
0.000146272 -2.88665 0.578047
0.000146269 -2.89441 0.564564
0.000146266 -2.90211 0.551017
0.000146263 -2.90975 0.537408
0.00014626 -2.91732 0.523736
0.000146257 -2.92483 0.510002
0.000146254 -2.93227 0.496206
0.000146251 -2.93965 0.482348
0.000146248 -2.94696 0.468429
0.000146245 -2.95421 0.454448
0.000146241 -2.96139 0.440407
0.000146238 -2.9685 0.426305
0.000146235 -2.97555 0.412144
0.000146232 -2.98253 0.397922
0.000146229 -2.98944 0.383641
0.000146226 -2.99629 0.369301
0.000146223 -3.00306 0.354901
0.00014622 -3.00977 0.340444
0.000146217 -3.0164 0.325928
0.000146214 -3.02297 0.311354
0.000146211 -3.02946 0.296723
0.000146208 -3.03589 0.282034
0.000146205 -3.04224 0.267289
0.000146202 -3.04852 0.252487
0.000146199 -3.05473 0.237629
0.000146196 -3.06087 0.222716
0.000146193 -3.06693 0.207747
0.00014619 -3.07292 0.192722
0.000146187 -3.07884 0.177643
0.000146184 -3.08468 0.16251
0.000146181 -3.09045 0.147323
0.000146178 -3.09614 0.132082
0.000146175 -3.10176 0.116788
0.000146172 -3.1073 0.101441
0.000146169 -3.11277 0.0860412
0.000146166 -3.11816 0.0705895
0.000146163 -3.12347 0.055086
0.00014616 -3.12871 0.0395312
0.000146157 -3.13387 0.0239254
0.000146154 -3.13895 0.00826903
0.000146151 -3.14395 -0.00743757
0.000146148 -3.14887 -0.023194
0.000146145 -3.15372 -0.0389998
0.000146142 -3.15848 -0.0548547
0.000146139 -3.16317 -0.0707582
0.000146136 -3.16777 -0.0867099
0.000146133 -3.1723 -0.102709
0.00014613 -3.17674 -0.118756
0.000146127 -3.1811 -0.13485
0.000146124 -3.18538 -0.150991
0.000146121 -3.18958 -0.167177
0.000146118 -3.1937 -0.18341
0.000146115 -3.19773 -0.199688
0.000146112 -3.20168 -0.21601
0.000146109 -3.20555 -0.232377
0.000146105 -3.20933 -0.248789
0.000146102 -3.21303 -0.265243
0.000146099 -3.21664 -0.281741
0.000146096 -3.22017 -0.298282
0.000146093 -3.22362 -0.314865
0.00014609 -3.22698 -0.33149
0.000146087 -3.23025 -0.348157
0.000146084 -3.23344 -0.364864
0.000146081 -3.23654 -0.381612
0.000146078 -3.23955 -0.3984
0.000146075 -3.24248 -0.415228
0.000146072 -3.24532 -0.432095
0.000146069 -3.24807 -0.449001
0.000146066 -3.25073 -0.465945
0.000146063 -3.25331 -0.482927
0.00014606 -3.2558 -0.499947
0.000146057 -3.25819 -0.517003
0.000146054 -3.2605 -0.534095
0.000146051 -3.26272 -0.551224
0.000146048 -3.26485 -0.568388
0.000146045 -3.26689 -0.585588
0.000146042 -3.26884 -0.602822
0.000146039 -3.2707 -0.620089
0.000146036 -3.27246 -0.637391
0.000146033 -3.27414 -0.654726
0.00014603 -3.27572 -0.672093
0.000146027 -3.27721 -0.689493
0.000146024 -3.27861 -0.706924
0.000146021 -3.27992 -0.724386
0.000146018 -3.28113 -0.74188
0.000146015 -3.28225 -0.759403
0.000146012 -3.28328 -0.776956
0.000146009 -3.28422 -0.794538
0.000146006 -3.28506 -0.812149
0.000146003 -3.2858 -0.829789
0.000146 -3.28645 -0.847456
0.000145997 -3.28701 -0.86515
0.000145994 -3.28747 -0.882871
0.000145991 -3.28784 -0.900618
0.000145988 -3.28811 -0.918391
0.000145985 -3.28829 -0.936189
0.000145982 -3.28837 -0.954012
0.000145979 -3.28835 -0.971859
0.000145976 -3.28824 -0.98973
0.000145973 -3.28803 -1.00762
0.00014597 -3.28772 -1.02554
0.000145967 -3.28732 -1.04348
0.000145964 -3.28682 -1.06144
0.000145961 -3.28622 -1.07942
0.000145958 -3.28552 -1.09742
0.000145955 -3.28473 -1.11544
0.000145952 -3.28384 -1.13348
0.000145949 -3.28285 -1.15154
0.000145946 -3.28176 -1.16962
0.000145943 -3.28057 -1.18772
0.00014594 -3.27929 -1.20583
0.000145937 -3.2779 -1.22396
0.000145934 -3.27641 -1.24211
0.000145931 -3.27483 -1.26027
0.000145928 -3.27314 -1.27845
0.000145925 -3.27136 -1.29664
0.000145922 -3.26947 -1.31485
0.000145919 -3.26749 -1.33307
0.000145916 -3.2654 -1.3513
0.000145913 -3.26322 -1.36954
0.00014591 -3.26093 -1.3878
0.000145907 -3.25854 -1.40607
0.000145904 -3.25605 -1.42435
0.0001459 -3.25346 -1.44264
0.000145897 -3.25076 -1.46094
0.000145894 -3.24797 -1.47924
0.000145891 -3.24507 -1.49756
0.000145888 -3.24207 -1.51588
0.000145885 -3.23897 -1.53422
0.000145882 -3.23577 -1.55255
0.000145879 -3.23246 -1.5709
0.000145876 -3.22905 -1.58925
0.000145873 -3.22554 -1.60761
0.00014587 -3.22193 -1.62597
0.000145867 -3.21821 -1.64433
0.000145864 -3.21439 -1.6627
0.000145861 -3.21046 -1.68107
0.000145858 -3.20644 -1.69944
0.000145855 -3.20231 -1.71782
0.000145852 -3.19807 -1.73619
0.000145849 -3.19373 -1.75457
0.000145846 -3.18929 -1.77294
0.000145843 -3.18474 -1.79132
0.00014584 -3.18009 -1.80969
0.000145837 -3.17534 -1.82807
0.000145834 -3.17048 -1.84644
0.000145831 -3.16551 -1.8648
0.000145828 -3.16045 -1.88317
0.000145825 -3.15527 -1.90153
0.000145822 -3.15 -1.91988
0.000145819 -3.14461 -1.93823
0.000145816 -3.13913 -1.95657
0.000145813 -3.13353 -1.97491
0.00014581 -3.12784 -1.99324
0.000145807 -3.12204 -2.01156
0.000145804 -3.11613 -2.02988
0.000145801 -3.11012 -2.04818
0.000145798 -3.104 -2.06648
0.000145795 -3.09777 -2.08476
0.000145792 -3.09145 -2.10304
0.000145789 -3.08501 -2.1213
0.000145786 -3.07847 -2.13955
0.000145783 -3.07183 -2.15779
0.00014578 -3.06508 -2.17602
0.000145777 -3.05822 -2.19423
0.000145774 -3.05126 -2.21243
0.000145771 -3.04419 -2.23062
0.000145768 -3.03702 -2.24878
0.000145765 -3.02974 -2.26694
0.000145762 -3.02236 -2.28507
0.000145759 -3.01487 -2.30319
0.000145756 -3.00727 -2.32129
0.000145753 -2.99957 -2.33937
0.00014575 -2.99176 -2.35744
0.000145747 -2.98385 -2.37548
0.000145744 -2.97583 -2.3935
0.000145741 -2.96771 -2.41151
0.000145738 -2.95948 -2.42949
0.000145735 -2.95114 -2.44745
0.000145732 -2.9427 -2.46538
0.000145729 -2.93416 -2.48329
0.000145726 -2.9255 -2.50118
0.000145723 -2.91674 -2.51905
0.00014572 -2.90788 -2.53689
0.000145717 -2.89891 -2.5547
0.000145714 -2.88984 -2.57249
0.000145711 -2.88065 -2.59025
0.000145708 -2.87137 -2.60798
0.000145705 -2.86198 -2.62568
0.000145702 -2.85248 -2.64336
0.000145699 -2.84288 -2.66101
0.000145696 -2.83317 -2.67862
0.000145693 -2.82336 -2.69621
0.00014569 -2.81344 -2.71376
0.000145687 -2.80342 -2.73128
0.000145684 -2.79329 -2.74877
0.000145681 -2.78306 -2.76623
0.000145678 -2.77272 -2.78365
0.000145675 -2.76228 -2.80104
0.000145672 -2.75173 -2.8184
0.000145669 -2.74108 -2.83571
0.000145666 -2.73033 -2.853
0.000145663 -2.71947 -2.87024
0.00014566 -2.7085 -2.88745
0.000145657 -2.69743 -2.90462
0.000145654 -2.68626 -2.92175
0.000145651 -2.67498 -2.93884
0.000145648 -2.6636 -2.9559
0.000145645 -2.65212 -2.97291
0.000145642 -2.64053 -2.98988
0.000145639 -2.62884 -3.00681
0.000145636 -2.61704 -3.0237
0.000145633 -2.60515 -3.04054
0.00014563 -2.59315 -3.05734
0.000145627 -2.58104 -3.0741
0.000145624 -2.56884 -3.09081
0.000145621 -2.55653 -3.10748
0.000145618 -2.54411 -3.1241
0.000145615 -2.5316 -3.14067
0.000145612 -2.51898 -3.1572
0.000145609 -2.50626 -3.17368
0.000145606 -2.49344 -3.19011
0.000145603 -2.48052 -3.20649
0.0001456 -2.4675 -3.22282
0.000145597 -2.45437 -3.23911
0.000145594 -2.44115 -3.25534
0.000145591 -2.42782 -3.27152
0.000145588 -2.41439 -3.28765
0.000145585 -2.40086 -3.30372
0.000145582 -2.38723 -3.31974
0.000145579 -2.3735 -3.33571
0.000145576 -2.35967 -3.35163
0.000145573 -2.34574 -3.36749
0.00014557 -2.33171 -3.38329
0.000145567 -2.31758 -3.39904
0.000145564 -2.30336 -3.41473
0.000145561 -2.28903 -3.43036
