ply
format ascii 1.0 
element vertex 1691
property float32 x
property float32 y
property float32 z
end_header
0.017722 -1.99085 -3.7223
0.0176777 0.0418604 -4.72107
0.0176336 2.54373 -4.55971
0.0175897 4.84149 -3.0484
0.0175461 6.20933 -0.385035
0.0175026 0.396704 0.185826
0.0174594 0.554723 0.756477
0.0174164 0.19031 1.42542
0.0173736 -0.695908 1.80882
0.017331 -1.85919 1.57721
0.0172887 -2.87743 0.593844
0.0172465 -3.28807 -1.00444
0.0172045 -2.75361 -2.81532
0.0171628 -1.20223 -4.27213
0.0171212 1.10499 -4.81285
0.0170799 3.60895 -4.06793
0.0170387 5.58794 -2.00888
0.0169978 0.153031 0.0238935
0.016957 0.519401 0.398869
0.0169164 0.466601 1.05643
0.0168761 -0.138993 1.64904
0.0168359 -1.18829 1.79764
0.0167959 -2.34659 1.24174
0.0167561 -3.15461 -0.0419342
0.0167165 -3.18389 -1.79472
0.016677 -2.19822 -3.52574
0.0166378 -0.267528 -4.64719
0.0165987 2.2073 -4.6584
0.0165599 4.57496 -3.32378
0.0165212 6.1043 -0.78751
0.0164827 0.346317 0.135001
0.0164443 0.560962 0.66722
0.0164062 0.2713 1.3446
0.0163682 -0.55474 1.7876
0.0163304 -1.70284 1.65084
0.0162928 -2.76774 0.765677
0.0162553 -3.28283 -0.769023
0.016218 -2.88482 -2.58223
0.0161809 -1.46075 -4.12043
0.016144 0.772834 -4.81001
0.0161072 3.29055 -4.24587
0.0160706 5.38157 -2.34851
0.0160342 0.0881677 0.00782455
0.0159979 0.489506 0.326699
0.0159618 0.504855 0.964357
0.0159258 -0.0281437 1.58826
0.01589 -1.0336 1.81482
0.0158544 -2.2026 1.35977
0.0158189 -3.08416 0.163856
0.0157836 -3.23606 -1.55093
0.0157485 -2.38845 -3.31832
0.0157135 -0.566948 -4.55335
0.0156786 1.86911 -4.7328
0.015644 4.29346 -3.57739
0.0156094 5.97351 -1.17779
0.015575 0.291207 0.091784
0.0155408 0.557992 0.580689
0.0155067 0.342467 1.2596
0.0154728 -0.419538 1.7559
0.015439 -1.54512 1.71089
0.0154054 -2.64821 0.925653
0.0153719 -3.26112 -0.538787
0.0153385 -2.99744 -2.34433
0.0153053 -1.70453 -3.95354
0.0152723 0.445964 -4.78459
0.0152394 2.96463 -4.39972
0.0152066 5.15503 -2.66974
0.015174 0.0221382 0.0004903
0.0151415 0.452569 0.260414
0.0151091 0.533087 0.872122
0.0150769 0.0740272 1.52034
0.0150448 -0.882015 1.81965
0.0150129 -2.05353 1.46432
0.0149811 -3.00061 0.360134
0.0149494 -3.27017 -1.30824
0.0149179 -2.561 -3.10143
0.0148865 -0.855137 -4.44055
0.0148552 1.53087 -4.78313
0.014824 3.99868 -3.80849
0.014793 5.81812 -1.55424
0.0147621 0.232168 0.0565592
0.0147314 0.546216 0.497702
0.0147008 0.403629 1.17137
0.0146703 -0.29105 1.71443
0.0146399 -1.38713 1.7575
0.0146096 -2.51993 1.07324
0.0145795 -3.22362 -0.314865
0.0145495 -3.09145 -2.10304
0.0145196 -1.93272 -3.77271
0.0144899 0.125896 -4.73729
0.0144603 2.63295 -4.52927
0.0144308 4.90984 -2.97139
0.0144014 6.23286 -0.27584
0.0143721 0.409248 0.200611
0.0143429 0.55146 0.780637
0.0143139 0.167079 1.44615
0.014285 -0.734466 1.81262
0.0142562 -1.90052 1.55526
0.0142275 -2.90489 0.546085
0.0141989 -3.28661 -1.06796
0.0141705 -2.7155 -2.87649
0.0141421 -1.13091 -4.30987
0.0141139 1.19428 -4.80972
0.0140858 3.69237 -4.01644
0.0140578 5.63939 -1.91534
0.0140299 0.170024 0.0296389
0.0140021 0.526106 0.41903
0.0139744 0.454692 1.08084
0.0139469 -0.169961 1.66393
0.0139194 -1.22995 1.79091
0.0138921 -2.384 1.20801
0.0138648 -3.17106 -0.0983188
0.0138377 -3.16689 -1.85977
0.0138107 -2.14457 -3.57929
0.0137838 -0.185926 -4.66889
0.0137569 2.29728 -4.63445
0.0137302 4.64758 -3.25242
0.0137036 6.13488 -0.681282
0.0136771 0.36025 0.147831
0.0136507 0.560213 0.690795
0.0136244 0.250649 1.36661
0.0135982 -0.591842 1.79431
0.0135721 -1.74473 1.63253
0.0135461 -2.79801 0.72098
0.0135202 -3.28586 -0.831357
0.0134944 -2.85163 -2.64493
0.0134687 -1.3932 -4.16243
0.0134431 0.860977 -4.813
0.0134176 3.37629 -4.20075
0.0133922 5.43865 -2.25967
0.0133669 0.105618 0.0112609
0.0133416 0.498195 0.3454
0.0133165 0.495637 0.988969
0.0132915 -0.0568816 1.60521
0.0132665 -1.0746 1.81146
0.0132417 -2.24155 1.3296
0.0132169 -3.10427 0.109861
0.0131923 -3.22392 -1.6159
0.0131677 -2.33942 -3.37463
0.0131432 -0.488132 -4.58028
0.0131189 1.95939 -4.71532
0.0130946 4.36991 -3.51192
0.0130704 6.01085 -1.07497
0.0130463 0.306324 0.102544
0.0130222 0.559663 0.603456
0.0129983 0.324457 1.28263
0.0129744 -0.454973 1.76535
0.0129507 -1.58726 1.69619
0.012927 -2.681 0.884174
0.0129034 -3.26848 -0.599625
0.0128799 -2.96922 -2.40817
0.0128565 -1.641 -3.99947
0.0128332 0.532546 -4.79354
0.0128099 3.0522 -4.36105
0.0127867 5.21735 -2.58592
0.0127637 0.0398149 0.00158732
0.0127407 0.463074 0.277483
0.0127177 0.526529 0.896687
0.0126949 0.0476504 1.53911
0.0126722 -0.922091 1.81954
0.0126495 -2.09372 1.43776
0.0126269 -3.02413 0.308759
0.0126044 -3.26282 -1.37279
0.012582 -2.51673 -3.16013
0.0125596 -0.779436 -4.47244
0.0125374 1.621 -4.77204
0.0125152 4.07851 -3.74909
0.0124931 5.86191 -1.45527
0.012471 0.248254 0.0651541
0.0124491 0.550193 0.519446
0.0124272 0.388301 1.19517
0.0124054 -0.324625 1.72641
0.0123837 -1.42924 1.74637
0.012362 -2.55494 1.03511
0.0123404 -3.23512 -0.373913
0.0123189 -3.06819 -2.16765
0.0122975 -1.87342 -3.82223
0.0122762 0.210519 -4.752
0.0122549 2.72188 -4.4971
0.0122337 4.97697 -2.8929
0.0122126 6.25446 -0.165933
0.0121915 0.421388 0.215897
0.0121705 0.547511 0.804914
0.0121496 0.143173 1.4665
0.0121288 -0.773376 1.81563
0.012108 -1.94165 1.53234
0.0120873 -2.93155 0.49754
0.0120667 -3.28393 -1.13174
0.0120461 -2.67608 -2.9372
0.0120256 -1.05863 -4.34641
0.0120052 1.28381 -4.80492
0.0119849 3.7751 -3.96327
0.0119646 5.68927 -1.82061
0.0119444 0.186856 0.0359924
0.0119242 0.532256 0.43955
0.0119042 0.442062 1.10516
0.0118841 -0.2015 1.67824
0.0118642 -1.27173 1.78327
0.0118443 -2.42094 1.17334
0.0118245 -3.18651 -0.155299
0.0118048 -3.14857 -1.92477
0.0117851 -2.0897 -3.63204
0.0117655 -0.10364 -4.68915
0.011746 2.3871 -4.60878
0.0117265 4.71911 -3.17953
0.0117071 6.1636 -0.574219
0.0116877 0.373833 0.161194
0.0116684 0.558803 0.714548
0.0116492 0.229303 1.3883
0.01163 -0.629354 1.80027
0.0116109 -1.78649 1.61326
0.0115919 -2.82755 0.67545
0.0115729 -3.28771 -0.894038
0.011554 -2.81713 -2.70726
0.0115352 -1.32462 -4.20333
0.0115164 0.949467 -4.81437
0.0114977 3.46145 -4.15393
0.011479 5.49427 -2.16955
0.0114604 0.12297 0.0153169
0.0114419 0.50637 0.364507
0.0114234 0.485703 1.01355
0.0114049 -0.0862279 1.62163
0.0113866 -1.1158 1.80722
0.0113683 -2.28012 1.29847
0.01135 -3.12343 0.0552052
0.0113318 -3.2105 -1.68093
0.0113137 -2.28914 -3.43024
0.0112956 -0.40854 -4.60584
0.0112776 2.04963 -4.69612
0.0112597 4.44539 -3.44486
0.0112418 6.04642 -0.97121
0.0112239 0.321146 0.113867
0.0112061 0.560699 0.626459
0.0111884 0.305738 1.30541
0.0111707 -0.490872 1.77408
0.0111531 -1.62936 1.68054
0.0111355 -2.71314 0.841823
0.011118 -3.27471 -0.660892
0.0111006 -2.93968 -2.47175
0.0110832 -1.57637 -4.04438
0.0110658 0.619583 -4.80092
0.0110485 3.13932 -4.32066
0.0110313 5.2783 -2.50074
0.0110141 0.0574541 0.0033101
0.010997 0.473111 0.295004
0.0109799 0.519266 0.921289
0.0109629 0.0206322 1.55741
0.0109459 -0.962436 1.81858
0.010929 -2.13361 1.41024
0.0109121 -3.04676 0.256664
0.0108953 -3.2542 -1.43748
0.0108786 -2.47118 -3.21823
0.0108619 -0.702873 -4.50302
0.0108452 1.71121 -4.75926
0.0108286 4.15748 -3.68805
0.010812 5.904 -1.35523
0.0107955 0.264102 0.0743348
0.0107791 0.553566 0.541483
0.0107627 0.372254 1.21878
0.0107463 -0.358714 1.73773
0.01073 -1.47138 1.73429
0.0107137 -2.58939 0.996081
0.0106975 -3.24555 -0.433466
0.0106814 -3.04362 -2.23209
0.0106653 -1.81298 -3.87083
0.0106492 0.295702 -4.7652
0.0106332 2.81049 -4.46319
0.0106172 5.04286 -2.81297
0.0106013 6.27412 -0.0553472
0.0105854 0.43311 0.231672
0.0105696 0.542873 0.829292
0.0105538 0.118599 1.48645
0.0105381 -0.812619 1.81781
0.0105224 -1.98256 1.50845
0.0105068 -2.95741 0.44822
0.0104912 -3.28001 -1.19576
0.0104757 -2.63535 -2.9974
0.0104602 -0.985412 -4.38174
0.0104447 1.37353 -4.79847
0.0104293 3.85711 -3.90842
0.0104139 5.73756 -1.72471
0.0103986 0.203511 0.04295
0.0103834 0.53784 0.460416
0.0103681 0.428712 1.12936
0.010353 -0.233597 1.69194
0.0103378 -1.31363 1.77471
0.0103227 -2.45739 1.13774
0.0103077 -3.20092 -0.212857
0.0102927 -3.12894 -1.9897
0.0102777 -2.03363 -3.68396
0.0102628 -0.0206942 -4.70795
0.0102479 2.47673 -4.58138
0.0102331 4.78951 -3.10512
0.0102183 6.19045 -0.466351
0.0102036 0.38705 0.175083
0.0101889 0.556723 0.738464
0.0101742 0.207267 1.40965
0.0101596 -0.667261 1.80545
0.010145 -1.82812 1.59301
0.0101305 -2.85635 0.629099
0.010116 -3.28837 -0.957044
0.0101015 -2.78131 -2.76919
0.0100871 -1.25502 -4.24309
0.0100727 1.03827 -4.81412
0.0100584 3.54601 -4.1054
0.0100441 5.54839 -2.07816
0.0100299 0.140205 0.01999
0.0100157 0.51402 0.384009
0.0100015 0.475051 1.03809
0.00998738 -0.116173 1.63751
0.0099733 -1.15718 1.80208
0.00995925 -2.31828 1.26639
0.00994524 -3.14162 -9.47022e-05
0.00993127 -3.19577 -1.74598
0.00991735 -2.23762 -3.48512
0.00990346 -0.328196 -4.63001
0.00988961 2.13981 -4.6752
0.00987579 4.51985 -3.37622
0.00986202 6.08019 -0.866523
0.00984828 0.335657 0.125744
0.00983459 0.561093 0.649685
0.00982093 0.286313 1.32792
0.00980731 -0.527222 1.78208
0.00979372 -1.6714 1.66392
0.00978018 -2.74461 0.798609
0.00976667 -3.27979 -0.722566
0.0097532 -2.90881 -2.53503
0.00973976 -1.51067 -4.08826
0.00972637 0.707048 -4.80671
0.00971301 3.22597 -4.27855
0.00969968 5.33787 -2.41421
0.00968639 0.0750392 0.00565755
0.00967314 0.482668 0.312964
0.00965993 0.511294 0.94591
0.00964675 -0.00701907 1.57524
0.00963361 -1.00303 1.81675
0.0096205 -2.17318 1.38175
0.00960743 -3.06849 0.203864
0.00959439 -3.24431 -1.5023
0.00958139 -2.42435 -3.2757
0.00956843 -0.625471 -4.5323
0.0095555 1.80147 -4.74477
0.0095426 4.23556 -3.62539
0.00952974 5.94439 -1.25416
0.00951692 0.279698 0.0840955
0.00950412 0.556328 0.563798
0.00949137 0.355492 1.2422
0.00947864 -0.393304 1.74838
0.00946595 -1.51354 1.72127
0.0094533 -2.62325 0.95615
0.00944068 -3.25487 -0.493504
0.00942809 -3.01771 -2.29634
0.00941554 -1.7514 -3.91847
0.00940302 0.381418 -4.77686
0.00939053 2.89875 -4.42755
0.00937807 5.10748 -2.73161
0.00936565 0.00888122 7.88812e-05
0.00935326 0.444401 0.247928
0.00934091 0.53754 0.853752
0.00932859 0.0933624 1.50599
0.00931629 -0.85218 1.81917
0.00930404 -2.02323 1.48359
0.00929181 -2.98242 0.398141
0.00927962 -3.27485 -1.25999
0.00926745 -2.59333 -3.05708
0.00925532 -0.91127 -4.41584
0.00924323 1.46343 -4.79033
0.00923116 3.93834 -3.85191
0.00921912 5.78423 -1.62767
0.00920712 0.219972 0.0505074
0.00919515 0.542848 0.481613
0.0091832 0.414642 1.15343
0.00917129 -0.266243 1.70503
0.00915941 -1.35563 1.76522
0.00914756 -2.49334 1.10121
0.00913575 -3.21429 -0.270973
0.00912396 -3.108 -2.05454
0.0091122 -1.97638 -3.73503
0.00910047 0.0628843 -4.72528
0.00908878 2.56614 -4.55224
0.00907711 4.85875 -3.02922
0.00906547 6.21541 -0.357712
0.00905386 0.399888 0.189488
0.00904229 0.553969 0.762526
0.00903074 0.184546 1.43066
0.00901922 -0.705546 1.80985
0.00900773 -1.86958 1.57179
0.00899627 -2.88439 0.581938
0.00898484 -3.28782 -1.02035
0.00897344 -2.74418 -2.83071
0.00896206 -1.18444 -4.28171
0.00895072 1.12737 -4.81222
0.0089394 3.62994 -4.05518
0.00892812 5.60099 -1.98553
0.00891686 0.157308 0.0252774
0.00890563 0.521135 0.403892
0.00889442 0.463681 1.06256
0.00888325 -0.146707 1.65283
0.0088721 -1.19872 1.79604
0.00886099 -2.35602 1.23337
0.0088499 -3.15883 -0.0560214
0.00883884 -3.17975 -1.81104
0.0088278 -2.18488 -3.53925
0.00881679 -0.247123 -4.65277
0.00880581 2.22989 -4.65255
0.00879486 4.59328 -3.30602
0.00878394 6.11214 -0.760943
0.00877304 0.349844 0.138169
0.00876217 0.560836 0.673116
0.00875132 0.266185 1.35015
0.0087405 -0.564008 1.78936
0.00872971 -1.71336 1.64634
0.00871895 -2.7754 0.754543
0.00870821 -3.2837 -0.784625
0.0086975 -2.87662 -2.59799
0.00868682 -1.4439 -4.13107
0.00867616 0.794911 -4.81091
0.00866552 3.31211 -4.23471
0.00865492 5.39603 -2.32635
0.00864434 0.0925537 0.0086282
0.00863378 0.491733 0.331352
0.00862325 0.50261 0.970533
0.00861275 -0.0352949 1.59256
0.00860227 -1.04387 1.81406
0.00859182 -2.2124 1.35229
0.00858139 -3.0893 0.150375
0.00857099 -3.23313 -1.56722
0.00856061 -2.37626 -3.33251
0.00855026 -0.547252 -4.56024
0.00853994 1.89176 -4.72858
0.00852964 4.31272 -3.56112
0.00851936 5.98304 -1.15209
0.00850911 0.295026 0.09443
0.00849888 0.55847 0.586377
0.00848868 0.338016 1.2654
0.0084785 -0.428382 1.75834
0.00846834 -1.5557 1.70729
0.00845821 -2.6565 0.91533
0.00844811 -3.26307 -0.554007
0.00843803 -2.99049 -2.36037
0.00842797 -1.68869 -3.96515
0.00841794 0.467639 -4.78698
0.00840793 2.98663 -4.39018
0.00839794 5.17079 -2.64884
0.00838798 0.026575 0.000706648
0.00837804 0.455247 0.264653
0.00836813 0.531508 0.87828
0.00835824 0.0674712 1.52509
0.00834837 -0.892042 1.8197
0.00833852 -2.06364 1.45775
0.0083287 -3.00659 0.347315
0.0083189 -3.26844 -1.32441
0.00830913 -2.55002 -3.11621
0.00829937 -0.836229 -4.44867
0.00828965 1.55347 -4.78051
0.00827994 4.01879 -3.79374
0.00827025 5.82926 -1.52951
0.00826059 0.236225 0.0586599
0.00825095 0.54727 0.503128
0.00824134 0.399852 1.17735
0.00823174 -0.299424 1.71749
0.00822217 -1.39769 1.75479
0.00821262 -2.52876 1.06376
0.00820309 -3.22661 -0.329629
0.00819359 -3.08574 -2.11926
0.00818411 -1.91795 -3.78522
0.00817464 0.14707 -4.74112
0.0081652 2.65528 -4.52136
0.00815579 4.92679 -2.95183
0.00814639 6.23846 -0.248336
0.00813702 0.412332 0.204399
0.00812766 0.550534 0.786717
0.00811833 0.161145 1.45129
0.00810902 -0.744194 1.81345
0.00809973 -1.91086 1.5496
0.00809047 -2.91165 0.533981
0.00808122 -3.28606 -1.08394
0.008072 -2.70573 -2.89177
0.00806279 -1.11287 -4.31915
0.00805361 1.21672 -4.80867
0.00804445 3.71319 -4.00326
0.0080353 5.65205 -1.89169
0.00802618 0.174262 0.0311757
0.00801708 0.527702 0.424145
0.008008 0.451591 1.08695
0.00799895 -0.177819 1.66757
0.00798991 -1.24042 1.78908
0.00798089 -2.39331 1.1994
0.00797189 -3.17503 -0.112557
0.00796291 -3.16241 -1.87608
0.00795396 -2.13092 -3.5926
0.00794502 -0.165348 -4.6741
0.0079361 2.31983 -4.62818
0.00792721 4.66563 -3.23428
0.00791833 6.14226 -0.654503
0.00790947 0.363691 0.151133
0.00790063 0.559922 0.696737
0.00789182 0.24536 1.37208
0.00788302 -0.601214 1.79588
0.00787424 -1.75522 1.62779
0.00786548 -2.80548 0.709636
0.00785674 -3.28644 -0.847049
0.00784802 -2.8431 -2.6606
0.00783932 -1.37609 -4.1728
0.00783064 0.883143 -4.8135
0.00782198 3.39771 -4.18917
0.00781333 5.45274 -2.23718
0.00780471 0.109981 0.0122202
0.00779611 0.500294 0.350155
0.00778752 0.493212 0.995139
0.00777895 -0.0641863 1.60938
0.0077704 -1.08491 1.81048
0.00776187 -2.25126 1.32188
0.00775336 -3.10917 0.0962121
0.00774487 -3.22068 -1.63221
0.0077364 -2.32692 -3.38865
0.00772794 -0.468239 -4.58682
0.00771951 1.98203 -4.71067
0.00771109 4.38894 -3.49524
0.00770269 6.01994 -1.04903
0.00769431 0.31007 0.105332
0.00768594 0.559983 0.609205
0.0076776 0.319828 1.28837
0.00766927 -0.463935 1.7676
0.00766096 -1.59783 1.69236
0.00765267 -2.68912 0.873632
0.0076444 -3.27015 -0.614955
0.00763614 -2.96194 -2.42415
0.0076279 -1.62489 -4.01083
0.00761969 0.554337 -4.79554
0.00761148 3.07409 -4.35108
0.0076033 5.23276 -2.56468
0.00759513 0.0442438 0.00196072
0.00758698 0.465636 0.281837
0.00757885 0.524773 0.902856
0.00757074 0.0409328 1.54374
0.00756264 -0.932187 1.81938
0.00755456 -2.10375 1.43095
0.0075465 -3.02989 0.295758
0.00753845 -3.26077 -1.389
0.00753042 -2.50542 -3.17476
0.00752241 -0.76031 -4.48023
0.00751442 1.64362 -4.769
0.00750644 4.0984 -3.73393
0.00749848 5.87263 -1.43027
0.00749054 0.252252 0.0674022
0.00748261 0.551096 0.524947
0.0074747 0.384343 1.20111
0.00746681 -0.333128 1.72931
0.00745893 -1.43981 1.74343
0.00745107 -2.56363 1.02541
0.00744323 -3.23784 -0.388805
0.0074354 -3.06215 -2.18383
0.00742759 -1.85837 -3.83451
0.0074198 0.231836 -4.75545
0.00741202 2.74414 -4.48875
0.00740426 4.99362 -2.87299
0.00739651 6.25958 -0.138255
0.00738879 0.424369 0.219808
0.00738107 0.546412 0.811021
0.00737338 0.137071 1.47155
0.0073657 -0.783189 1.81625
0.00735803 -1.95194 1.52644
0.00735038 -2.93812 0.48524
0.00734275 -3.28306 -1.14778
0.00733513 -2.66598 -2.95235
0.00732753 -1.04035 -4.35539
0.00731995 1.3063 -4.80346
0.00731238 3.79574 -3.94967
0.00730482 5.70154 -1.79666
0.00729728 0.191051 0.0376811
0.00728976 0.53371 0.444752
0.00728225 0.438781 1.11124
0.00727476 -0.209499 1.68173
0.00726728 -1.28224 1.78121
0.00725982 -2.43013 1.16449
0.00725238 -3.19022 -0.169684
0.00724495 -3.14377 -1.94107
0.00723753 -2.07575 -3.64514
0.00723013 -0.0828935 -4.694
0.00722275 2.40961 -4.60207
0.00721538 4.73688 -3.16101
0.00720802 6.17051 -0.547234
0.00720068 0.377183 0.164629
0.00719335 0.558344 0.720533
0.00718604 0.22384 1.39368
0.00717875 -0.638827 1.80164
0.00717147 -1.79695 1.60827
0.0071642 -2.83484 0.663899
0.00715695 -3.28799 -0.909813
0.00714971 -2.80827 -2.72283
0.00714249 -1.30725 -4.21341
0.00713529 0.971716 -4.81446
0.00712809 3.48272 -4.14192
0.00712091 5.50798 -2.14674
0.00711375 0.127305 0.0164313
0.0071066 0.508339 0.369363
0.00709947 0.483098 1.01971
0.00709235 -0.0936839 1.62566
0.00708524 -1.12616 1.80601
0.00707815 -2.28973 1.29051
0.00707107 -3.12809 0.041393
0.007064 -3.20692 -1.69724
0.00705695 -2.27633 -3.44408
0.00704992 -0.388456 -4.61203
0.0070429 2.07226 -4.69104
0.00703589 4.46416 -3.42778
0.00702889 6.05506 -0.945035
0.00702191 0.324816 0.116794
0.00701495 0.560858 0.632265
0.007008 0.300931 1.31108
0.00700106 -0.499949 1.77615
0.00699413 -1.63992 1.67646
0.00698722 -2.72109 0.831063
0.00698032 -3.27609 -0.676326
0.00697344 -2.93206 -2.48765
0.00696657 -1.55999 -4.05549
0.00695971 0.641485 -4.80252
0.00695287 3.1611 -4.31026
0.00694604 5.29338 -2.47916
0.00693922 0.061871 0.00384031
0.00693242 0.475554 0.299468
0.00692563 0.517333 0.927464
0.00691885 0.013755 1.56193
0.00691209 -0.972597 1.8182
0.00690534 -2.14357 1.40318
0.0068986 -3.05229 0.243485
0.00689188 -3.25184 -1.45373
0.00688517 -2.45955 -3.2327
0.00687847 -0.683534 -4.51049
0.00687179 1.73385 -4.75579
0.00686511 4.17715 -3.67249
0.00685846 5.9143 -1.32998
0.00685181 0.268039 0.076729
0.00684518 0.554317 0.547055
0.00683856 0.368117 1.22468
0.00683195 -0.367344 1.74046
0.00682535 -1.48196 1.73111
0.00681877 -2.59794 0.986148
0.0068122 -3.24799 -0.448482
0.00680565 -3.03724 -2.24823
0.0067991 -1.79764 -3.88287
0.00679257 0.317155 -4.76827
0.00678605 2.83267 -4.45441
0.00677955 5.05919 -2.7927
0.00677305 6.27874 -0.0275042
0.00676657 0.435984 0.235705
0.0067601 0.5416 0.83542
0.00675365 0.11233 1.4914
0.0067472 -0.822514 1.81823
0.00674077 -1.99279 1.5023
0.00673435 -2.96376 0.435729
0.00672794 -3.27884 -1.21185
0.00672155 -2.62493 -3.01243
0.00671516 -0.966899 -4.39041
0.00670879 1.39607 -4.79658
0.00670243 3.87756 -3.8944
0.00669609 5.74942 -1.70047
0.00668975 0.207659 0.0447896
0.00668343 0.539151 0.465702
0.00667712 0.42525 1.13541
0.00667082 -0.241735 1.69529
0.00666453 -1.32416 1.77242
0.00665826 -2.46646 1.12866
0.00665199 -3.20438 -0.227383
0.00664574 -3.12381 -2.00598
0.0066395 -2.01938 -3.69685
0.00663327 0.00021308 -4.71243
0.00662705 2.49918 -4.57423
0.00662085 4.80699 -3.08622
0.00661466 6.19689 -0.43917
0.00660847 0.390307 0.178648
0.0066023 0.556096 0.744487
0.00659615 0.201632 1.41495
0.00659 -0.67683 1.80663
0.00658386 -1.83853 1.58778
0.00657774 -2.86346 0.617344
0.00657162 -3.28835 -0.972897
0.00656552 -2.77212 -2.78467
0.00655943 -1.23741 -4.25289
0.00655335 1.0606 -4.8138
0.00654728 3.56713 -4.09296
0.00654123 5.56173 -2.05504
0.00653518 0.144508 0.0212588
0.00652915 0.515856 0.388961
0.00652313 0.472267 1.04423
0.00651711 -0.123778 1.6414
0.00651111 -1.16759 1.80065
0.00650512 -2.32779 1.2582
0.00649914 -3.14603 -0.0140658
0.00649318 -3.19187 -1.7623
0.00648722 -2.22451 -3.49877
0.00648127 -0.307926 -4.63585
0.00647534 2.16242 -4.66968
0.00646941 4.53837 -3.35875
0.0064635 6.08837 -0.84012
0.0064576 0.339247 0.12881
0.0064517 0.56109 0.655544
0.00644582 0.28133 1.33353
0.00643995 -0.536409 1.78398
0.00643409 -1.68194 1.6596
0.00642824 -2.7524 0.787635
0.00642241 -3.28088 -0.738098
0.00641658 -2.90086 -2.55085
0.00641076 -1.49402 -4.0991
0.00640495 0.729052 -4.80792
0.00639916 3.24763 -4.26771
0.00639337 5.3526 -2.39229
0.0063876 0.07944 0.00634425
0.00638183 0.484989 0.317537
0.00637608 0.509182 0.952087
0.00637033 -0.0140538 1.57963
0.0063646 -1.01326 1.81616
0.00635887 -2.18305 1.37445
0.00635316 -3.07379 0.19051
0.00634746 -3.24162 -1.51858
0.00634176 -2.41241 -3.29001
0.00633608 -0.605925 -4.53943
0.00633041 1.82412 -4.74087
0.00632475 4.25501 -3.60942
0.0063191 5.95425 -1.22865
0.00631345 0.283569 0.0866342
0.00630782 0.556924 0.569438
0.0063022 0.351175 1.24804
0.00629659 -0.402058 1.75094
0.00629099 -1.52412 1.71785
0.00628539 -2.63164 0.945993
0.00627981 -3.25703 -0.508638
0.00627424 -3.01101 -2.31242
0.00626868 -1.73577 -3.93028
0.00626312 0.403 -4.77955
0.00625758 2.92084 -4.41834
0.00625205 5.12348 -2.71098
0.00624653 0.0133212 0.00017748
0.00624101 0.447164 0.252079
0.00623551 0.536092 0.859899
0.00623002 0.0869288 1.51082
0.00622453 -0.862152 1.81938
0.00621906 -2.03339 1.4772
0.00621359 -2.98857 0.385461
0.00620814 -3.27336 -1.27614
0.00620269 -2.58259 -3.07197
0.00619726 -0.89253 -4.42419
0.00619183 1.48601 -4.78802
0.00618641 3.9586 -3.83748
0.006181 5.79568 -1.60315
0.00617561 0.22407 0.0524968
0.00617022 0.544013 0.486981
0.00616484 0.410999 1.15945
0.00615947 -0.274516 1.70822
0.00615411 -1.36617 1.76269
0.00614875 -2.50228 1.0919
0.00614341 -3.21748 -0.285637
0.00613808 -3.10254 -2.07079
0.00613276 -1.96183 -3.7477
0.00612744 0.0839464 -4.72939
0.00612214 2.58852 -4.54465
0.00611684 4.87593 -3.00995
0.00611155 6.22137 -0.330343
0.00610628 0.403047 0.193181
0.00610101 0.553171 0.768583
0.00609575 0.178739 1.43587
0.0060905 -0.715208 1.81083
0.00608526 -1.87995 1.56632
0.00608002 -2.8913 0.569982
0.0060748 -3.28749 -1.03628
0.00606959 -2.73465 -2.84607
0.00606438 -1.16657 -4.29121
0.00605918 1.14976 -4.81148
0.006054 3.65089 -4.04231
0.00604882 5.61395 -1.9621
0.00604365 0.161575 0.0266997
0.00603849 0.522834 0.408938
0.00603333 0.460716 1.06869
0.00602819 -0.154458 1.65658
0.00602306 -1.20917 1.79438
0.00601793 -2.36542 1.22493
0.00601281 -3.16299 -0.0701469
0.0060077 -3.17552 -1.82736
0.0060026 -2.17146 -3.55271
0.00599751 -0.226675 -4.65825
0.00599243 2.25246 -4.6466
0.00598736 4.61153 -3.28817
0.00598229 6.11987 -0.734322
0.00597723 0.35335 0.141371
0.00597219 0.560669 0.679024
0.00596715 0.261027 1.35568
0.00596211 -0.573302 1.79106
0.00595709 -1.72387 1.64178
0.00595208 -2.78301 0.743357
0.00594707 -3.2845 -0.800251
0.00594207 -2.86833 -2.61373
0.00593708 -1.42699 -4.14164
0.0059321 0.817011 -4.81171
0.00592713 3.33364 -4.22345
0.00592217 5.41039 -2.3041
0.00591721 0.0969342 0.00947096
0.00591226 0.493929 0.33603
0.00590732 0.50032 0.976708
0.00590239 -0.0424849 1.59683
0.00589747 -1.05414 1.81324
0.00589256 -2.22218 1.34475
0.00588765 -3.09437 0.136851
0.00588275 -3.23013 -1.58351
0.00587786 -2.364 -3.34666
0.00587298 -0.527505 -4.56703
0.00586811 1.91441 -4.72425
0.00586324 4.33193 -3.54474
0.00585838 5.99246 -1.12633
0.00585353 0.298827 0.0971117
0.00584869 0.558909 0.592081
0.00584386 0.33352 1.27119
0.00583903 -0.437257 1.76073
0.00583421 -1.56627 1.70363
0.0058294 -2.66474 0.904952
0.0058246 -3.26496 -0.569255
0.00581981 -2.98345 -2.37639
0.00581502 -1.67279 -3.9767
0.00581024 0.489344 -4.78928
0.00580547 3.00861 -4.38053
0.00580071 5.18646 -2.62786
0.00579596 0.0310103 0.000962409
0.00579121 0.457897 0.268921
0.00578647 0.529885 0.884441
0.00578174 0.0608745 1.52981
0.00577702 -0.902086 1.8197
0.0057723 -2.07373 1.45112
0.00576759 -3.01252 0.33445
0.00576289 -3.26664 -1.3406
0.0057582 -2.53895 -3.13096
0.00575351 -0.817266 -4.45671
0.00574884 1.57608 -4.77778
0.00574417 4.03884 -3.77889
0.0057395 5.8403 -1.50472
0.00573485 0.240267 0.0607977
0.0057302 0.548286 0.508573
0.00572556 0.396029 1.18333
0.00572093 -0.30783 1.72052
0.0057163 -1.40825 1.75203
0.00571169 -2.53756 1.05423
0.00570708 -3.22953 -0.344425
0.00570247 -3.07995 -2.13547
0.00569788 -1.90312 -3.79767
0.00569329 0.16828 -4.74486
0.00568871 2.6776 -4.51335
0.00568414 4.94367 -2.93219
0.00567957 6.24394 -0.220786
0.00567501 0.41539 0.208218
0.00567046 0.549564 0.792803
0.00566592 0.155169 1.45641
0.00566138 -0.753944 1.81423
0.00565685 -1.92118 1.54388
0.00565233 -2.91837 0.521827
0.00564782 -3.28542 -1.09993
0.00564331 -2.69588 -2.90701
0.00563881 -1.09477 -4.32835
0.00563432 1.23917 -4.80752
0.00562983 3.73397 -3.98998
0.00562535 5.66461 -1.86796
0.00562088 0.178489 0.0327507
0.00561642 0.529262 0.429281
0.00561196 0.448445 1.09305
0.00560751 -0.185714 1.67118
0.00560306 -1.2509 1.7872
0.00559863 -2.40259 1.19073
0.0055942 -3.17894 -0.126833
0.00558978 -3.15786 -1.89239
0.00558536 -2.11719 -3.60586
0.00558095 -0.144727 -4.67923
0.00557655 2.34237 -4.62179
0.00557216 4.68361 -3.21604
0.00556777 6.14952 -0.627671
0.00556339 0.367109 0.154469
0.00555902 0.559589 0.702691
0.00555465 0.240027 1.37753
0.00555029 -0.610612 1.7974
0.00554594 -1.7657 1.62298
0.00554159 -2.81292 0.698241
0.00553725 -3.28694 -0.862762
0.00553292 -2.83449 -2.67625
0.00552859 -1.35892 -4.18309
0.00552427 0.905331 -4.81389
0.00551996 3.41909 -4.17748
0.00551565 5.46674 -2.21462
0.00551135 0.114337 0.0132185
0.00550706 0.502361 0.354936
0.00550278 0.490743 1.00131
0.0054985 -0.0715292 1.61351
0.00549423 -1.09524 1.80944
0.00548996 -2.26095 1.3141
0.0054857 -3.11401 0.0825217
0.00548145 -3.21735 -1.64852
0.0054772 -2.31435 -3.40262
0.00547296 -0.448296 -4.59327
0.00546873 2.00467 -4.7059
0.0054645 4.4079 -3.47847
0.00546028 6.02892 -1.02303
0.00545607 0.313798 0.108155
0.00545186 0.560263 0.614968
0.00544766 0.315154 1.29409
0.00544347 -0.472927 1.76982
0.00543928 -1.60839 1.68846
0.0054351 -2.6972 0.863035
0.00543093 -3.27175 -0.630311
0.00542676 -2.95457 -2.4401
0.0054226 -1.60871 -4.02213
0.00541844 0.576157 -4.79744
0.00541429 3.09596 -4.341
0.00541015 5.2481 -2.54336
0.00540602 0.0486702 0.00237348
0.00540189 0.468169 0.286218
0.00539776 0.522973 0.909027
0.00539364 0.034175 1.54835
0.00538953 -0.942299 1.81916
0.00538543 -2.11377 1.42407
0.00538133 -3.03559 0.282712
0.00537724 -3.25865 -1.40523
0.00537315 -2.49404 -3.18935
0.00536907 -0.74113 -4.48795
0.005365 1.66625 -4.76584
0.00536093 4.11824 -3.71867
0.00535687 5.88324 -1.40521
0.00535281 0.256236 0.0696872
0.00534877 0.551961 0.530466
0.00534472 0.38034 1.20704
0.00534069 -0.341664 1.73217
0.00533665 -1.45038 1.74043
0.00533263 -2.57229 1.01564
0.00532861 -3.24049 -0.403729
0.0053246 -3.05603 -2.2
0.00532059 -1.84324 -3.84673
0.00531659 0.253187 -4.75881
0.0053126 2.76638 -4.4803
0.00530861 5.01019 -2.85298
0.00530463 6.26457 -0.110534
0.00530065 0.427322 0.223751
0.00529668 0.54527 0.817133
0.00529272 0.130927 1.47656
0.00528876 -0.793023 1.81683
0.0052848 -1.96221 1.52047
0.00528086 -2.94463 0.472892
0.00527692 -3.28212 -1.16383
0.00527298 -2.65581 -2.96747
0.00526905 -1.02201 -4.36429
0.00526513 1.3288 -4.80189
0.00526121 3.81634 -3.93596
0.0052573 5.7137 -1.77264
0.00525339 0.195235 0.0394078
0.00524949 0.535129 0.449976
0.0052456 0.435454 1.11732
0.00524171 -0.217534 1.68519
0.00523783 -1.29274 1.77909
0.00523395 -2.43929 1.15559
0.00523008 -3.19387 -0.184105
0.00522621 -3.13889 -1.95736
0.00522235 -2.06172 -3.65819
0.0052185 -0.0621064 -4.69876
0.00521465 2.4321 -4.59525
0.00521081 4.75457 -3.14239
0.00520697 6.17731 -0.5202
0.00520314 0.380511 0.168097
0.00519931 0.557843 0.726528
0.00519549 0.218334 1.39905
0.00519168 -0.648324 1.80296
0.00518787 -1.80739 1.60322
0.00518407 -2.84209 0.652297
0.00518027 -3.28819 -0.925609
0.00517648 -2.79932 -2.73838
0.00517269 -1.28983 -4.22342
0.00516891 0.993984 -4.81445
0.00516513 3.50396 -4.1298
0.00516136 5.52161 -2.12385
0.0051576 0.131632 0.0175844
0.00515384 0.510275 0.374243
0.00515009 0.480449 1.02587
0.00514634 -0.101177 1.62966
0.00514259 -1.13654 1.80475
0.00513886 -2.29932 1.2825
0.00513513 -3.13268 0.0275405
0.0051314 -3.20327 -1.71356
0.00512768 -2.26345 -3.45787
0.00512396 -0.368324 -4.61814
0.00512025 2.09489 -4.68584
0.00511655 4.48287 -3.41062
0.00511285 6.06358 -0.918802
0.00510915 0.328466 0.119757
0.00510546 0.560977 0.638085
0.00510178 0.29608 1.31674
0.0050981 -0.509054 1.77819
0.00509443 -1.65046 1.67232
0.00509076 -2.72901 0.820249
0.0050871 -3.2774 -0.691784
0.00508344 -2.92436 -2.50353
0.00507979 -1.54354 -4.06653
0.00507614 0.663413 -4.80403
0.0050725 3.18286 -4.29975
0.00506887 5.30836 -2.4575
0.00506523 0.0662844 0.00440982
0.00506161 0.477967 0.30396
0.00505799 0.515355 0.93364
0.00505437 0.00683811 1.56642
0.00505076 -0.982774 1.81777
0.00504716 -2.1535 1.39606
0.00504356 -3.05777 0.230261
0.00503996 -3.24939 -1.46999
0.00503637 -2.44784 -3.24714
0.00503279 -0.664143 -4.51788
0.00502921 1.75649 -4.75221
0.00502563 4.19677 -3.65682
0.00502207 5.92448 -1.30465
0.0050185 0.271959 0.0791596
0.00501494 0.555029 0.552645
0.00501139 0.363934 1.23056
0.00500784 -0.376006 1.74315
0.00500429 -1.49253 1.72788
0.00500076 -2.60645 0.976159
0.00499722 -3.25036 -0.463528
0.00499369 -3.03079 -2.26435
0.00499017 -1.78222 -3.89485
0.00498665 0.338641 -4.77124
0.00498313 2.85482 -4.44553
0.00497963 5.07544 -2.77233
0.00497612 6.02887e-05 3.63473e-09
0.00497262 0.43883 0.239768
0.00496913 0.540284 0.841554
0.00496564 0.10602 1.49631
0.00496215 -0.832428 1.8186
0.00495867 -2.003 1.4961
0.0049552 -2.97006 0.423189
0.00495173 -3.27758 -1.22796
0.00494826 -2.61443 -3.02741
0.0049448 -0.948329 -4.399
0.00494135 1.41862 -4.79459
0.0049379 3.89796 -3.88028
0.00493445 5.76118 -1.67616
0.00493101 0.211795 0.0466669
0.00492757 0.540425 0.47101
0.00492414 0.421743 1.14145
0.00492072 -0.249908 1.69859
0.00491729 -1.33469 1.77007
0.00491388 -2.47549 1.11953
0.00491046 -3.20776 -0.241945
0.00490706 -3.1186 -2.02225
0.00490365 -2.00506 -3.70969
0.00490025 0.0211598 -4.71683
0.00489686 2.52162 -4.56697
0.00489347 4.82439 -3.06723
0.00489009 6.20321 -0.411941
0.00488671 0.393539 0.182246
0.00488333 0.555426 0.750519
0.00487996 0.195953 1.42024
0.0048766 -0.686422 1.80776
0.00487324 -1.84894 1.58249
0.00486988 -2.87052 0.605538
0.00486653 -3.28825 -0.988769
0.00486318 -2.76284 -2.80011
0.00485984 -1.21973 -4.26261
0.0048565 1.08294 -4.81337
0.00485317 3.5882 -4.08042
0.00484984 5.57497 -2.03184
0.00484652 0.148803 0.0225661
0.0048432 0.517657 0.393938
0.00483988 0.469437 1.05038
0.00483657 -0.131419 1.64526
0.00483327 -1.178 1.79916
0.00482996 -2.33727 1.24994
0.00482667 -3.15038 -0.028076
0.00482338 -3.1879 -1.77862
0.00482009 -2.21131 -3.51237
0.0048168 -0.287611 -4.6416
0.00481352 2.18502 -4.66405
0.00481025 4.55682 -3.34119
0.00480698 6.09645 -0.813662
0.00480371 0.342816 0.13191
0.00480045 0.561046 0.661415
0.0047972 0.276302 1.33911
0.00479394 -0.545624 1.78583
0.0047907 -1.69247 1.65522
0.00478745 -2.76014 0.776607
0.00478421 -3.2819 -0.753654
0.00478098 -2.89282 -2.56666
0.00477775 -1.4773 -4.10987
0.00477452 0.751081 -4.80902
0.0047713 3.26925 -4.25677
0.00476808 5.36723 -2.37029
0.00476487 0.0838362 0.00707014
0.00476166 0.487279 0.322136
0.00475846 0.507026 0.958264
0.00475526 -0.0211276 1.58399
0.00475206 -1.02349 1.81551
0.00474887 -2.1929 1.36709
0.00474568 -3.07904 0.177113
0.0047425 -3.23886 -1.53486
0.00473932 -2.40038 -3.30429
0.00473615 -0.586329 -4.54648
0.00473298 1.84677 -4.73686
0.00472981 4.27439 -3.59335
0.00472665 5.964 -1.20307
0.00472349 0.287423 0.089209
0.00472034 0.557481 0.575094
0.00471719 0.346813 1.25387
0.00471405 -0.410843 1.75346
0.0047109 -1.53469 1.71437
0.00470777 -2.64 0.935781
0.00470464 -3.25912 -0.523802
0.00470151 -3.00422 -2.32849
0.00469838 -1.72008 -3.94202
0.00469526 0.424614 -4.78213
0.00469215 2.94289 -4.40902
0.00468904 5.13941 -2.69026
0.00468593 0.0177603 0.000315512
0.00468283 0.449899 0.25626
0.00467973 0.534601 0.86605
0.00467663 0.0804541 1.51563
0.00467354 -0.872142 1.81954
0.00467045 -2.04354 1.47075
0.00466737 -2.99466 0.372734
0.00466429 -3.2718 -1.29229
0.00466122 -2.57176 -3.08682
0.00465815 -0.873733 -4.43247
0.00465508 1.50859 -4.78561
0.00465202 3.9788 -3.82294
0.00464896 5.80703 -1.57856
0.00464591 0.228153 0.0545235
0.00464285 0.54514 0.492368
0.00463981 0.407312 1.16545
0.00463677 -0.282823 1.71137
0.00463373 -1.37672 1.76011
0.00463069 -2.51118 1.08254
0.00462766 -3.2206 -0.300335
0.00462464 -3.097 -2.08703
0.00462161 -1.94721 -3.76032
0.00461859 0.105046 -4.73341
0.00461558 2.61089 -4.53696
0.00461257 4.89304 -2.99058
0.00460956 6.22721 -0.302928
0.00460656 0.406181 0.196906
0.00460356 0.552331 0.774647
0.00460056 0.17289 1.44106
0.00459757 -0.724892 1.81176
0.00459459 -1.89031 1.56078
0.0045916 -2.89817 0.557977
0.00458862 -3.28709 -1.05222
0.00458565 -2.72505 -2.8614
0.00458268 -1.14865 -4.30064
0.00457971 1.17217 -4.81065
0.00457674 3.67179 -4.02934
0.00457378 5.6268 -1.9386
0.00457083 0.165833 0.0281604
0.00456787 0.524498 0.414008
0.00456492 0.457706 1.07481
0.00456198 -0.162245 1.6603
0.00455904 -1.21962 1.79266
0.0045561 -2.37478 1.21644
0.00455317 -3.16709 -0.0843105
0.00455024 -3.17121 -1.84368
0.00454731 -2.15796 -3.56611
0.00454439 -0.206183 -4.66365
0.00454147 2.27503 -4.64054
0.00453855 4.62971 -3.27022
0.00453564 6.12748 -0.707647
0.00453274 0.356835 0.144606
0.00452983 0.56046 0.684944
0.00452693 0.255824 1.36119
0.00452404 -0.582623 1.79272
0.00452114 -1.73437 1.63715
0.00451825 -2.79058 0.732118
0.00451537 -3.28522 -0.815899
0.00451249 -2.85997 -2.62945
0.00450961 -1.41001 -4.15214
0.00450674 0.839133 -4.81241
0.00450386 3.35512 -4.21208
0.004501 5.42466 -2.28178
0.00449813 0.101309 0.0103528
0.00449528 0.496092 0.340734
0.00449242 0.497984 0.982881
0.00448957 -0.0497135 1.60106
0.00448672 -1.06443 1.81237
0.00448387 -2.23194 1.33715
0.00448103 -3.09939 0.123284
0.00447819 -3.22704 -1.59982
0.00447536 -2.35167 -3.36076
0.00447253 -0.507708 -4.57374
0.0044697 1.93705 -4.71981
0.00446688 4.35108 -3.52827
0.00446406 6.00177 -1.1005
0.00446124 0.30261 0.099829
0.00445843 0.559308 0.5978
0.00445562 0.328979 1.27695
0.00445281 -0.446161 1.76307
0.00445001 -1.57684 1.69992
0.00444721 -2.67294 0.894519
0.00444442 -3.26677 -0.584531
0.00444163 -2.97633 -2.3924
0.00443884 -1.65682 -3.98819
0.00443605 0.511078 -4.79147
0.00443327 3.03057 -4.37078
0.00443049 5.20205 -2.60679
0.00442772 0.0354437 0.00125757
0.00442495 0.460517 0.273217
0.00442218 0.528217 0.890604
0.00441942 0.0542372 1.53451
0.00441666 -0.912148 1.81964
0.0044139 -2.0838 1.44443
0.00441115 -3.01839 0.32154
0.0044084 -3.26475 -1.3568
0.00440565 -2.52781 -3.14566
0.00440291 -0.798249 -4.46467
0.00440017 1.59869 -4.77495
0.00439743 4.05883 -3.76394
0.0043947 5.85123 -1.47986
0.00439197 0.244295 0.0629726
0.00438924 0.549264 0.514038
0.00438652 0.392161 1.18929
0.0043838 -0.316269 1.7235
0.00438108 -1.41882 1.74921
0.00437837 -2.54633 1.04463
0.00437566 -3.23238 -0.359254
0.00437295 -3.07407 -2.15168
0.00437025 -1.8882 -3.81006
0.00436755 0.189526 -4.7485
0.00436486 2.6999 -4.50522
0.00436216 4.96048 -2.91246
0.00435947 6.2493 -0.193194
0.00435679 0.418423 0.212068
0.00435411 0.548552 0.798897
0.00435143 0.149151 1.4615
0.00434875 -0.763716 1.81496
0.00434608 -1.9315 1.5381
0.00434341 -2.92503 0.509625
0.00434074 -3.28471 -1.11594
0.00433808 -2.68595 -2.92222
0.00433542 -1.07661 -4.33748
0.00433276 1.26163 -4.80627
0.00433011 3.7547 -3.97659
0.00432746 5.67707 -1.84416
0.00432481 0.182707 0.0343638
0.00432217 0.530787 0.43444
0.00431953 0.445254 1.09915
0.00431689 -0.193643 1.67475
0.00431426 -1.26138 1.78525
0.00431163 -2.41184 1.182
0.004309 -3.18278 -0.141145
0.00430638 -3.15323 -1.90869
0.00430375 -2.10339 -3.61906
0.00430114 -0.124063 -4.68427
0.00429852 2.36489 -4.61529
0.00429591 4.70151 -3.19771
0.0042933 6.15667 -0.600787
0.0042907 0.370505 0.157839
0.00428809 0.559214 0.708655
0.0042855 0.23465 1.38296
0.0042829 -0.620035 1.79887
0.00428031 -1.77617 1.61812
0.00427772 -2.82031 0.686793
0.00427513 -3.28737 -0.878497
0.00427255 -2.82579 -2.69187
0.00426997 -1.34168 -4.19331
0.00426739 0.92754 -4.81419
0.00426482 3.44043 -4.16567
0.00426225 5.48064 -2.19197
0.00425968 0.118686 0.0142557
0.00425712 0.504396 0.359742
0.00425455 0.488228 1.00747
0.004252 -0.0789102 1.61762
0.00424944 -1.10558 1.80835
0.00424689 -2.27061 1.30626
0.00424434 -3.11878 0.0687903
0.00424179 -3.21394 -1.66483
0.00423925 -2.3017 -3.41655
0.00423671 -0.428306 -4.59964
0.00423417 2.02731 -4.70103
0.00423164 4.4268 -3.4616
0.00422911 6.03778 -0.996974
0.00422658 0.317506 0.111013
0.00422405 0.560502 0.620746
0.00422153 0.310436 1.2998
0.00421901 -0.481947 1.77198
0.0042165 -1.61895 1.6845
0.00421399 -2.70524 0.852383
0.00421148 -3.27328 -0.645693
0.00420897 -2.94711 -2.45604
0.00420647 -1.59246 -4.03336
0.00420396 0.598005 -4.79924
0.00420147 3.11781 -4.33082
0.00419897 5.26335 -2.52195
0.00419648 0.0530937 0.00282559
0.00419399 0.470671 0.290627
0.0041915 0.521129 0.915199
0.00418902 0.027377 1.55293
0.00418654 -0.952429 1.8189
0.00418406 -2.12377 1.41714
0.00418159 -3.04124 0.269621
0.00417912 -3.25645 -1.42146
0.00417665 -2.48257 -3.20391
0.00417418 -0.721897 -4.49558
0.00417172 1.68888 -4.76258
0.00416926 4.13802 -3.70331
0.0041668 5.89374 -1.38008
0.00416435 0.260203 0.0720088
0.0041619 0.552788 0.536004
0.00415945 0.376292 1.21296
0.00415701 -0.350231 1.73499
0.00415456 -1.46095 1.73737
0.00415212 -2.58092 1.00582
0.00414969 -3.24307 -0.418684
0.00414725 -3.04982 -2.21616
0.00414482 -1.82804 -3.85889
0.00414239 0.274573 -4.76207
0.00413997 2.78859 -4.47174
0.00413755 5.02668 -2.83288
0.00413513 6.26944 -0.0827725
0.00413271 0.430249 0.227723
0.0041303 0.544085 0.823251
0.00412789 0.124741 1.48156
0.00412548 -0.802878 1.81735
0.00412307 -1.97246 1.51445
0.00412067 -2.95109 0.460496
0.00411827 -3.2811 -1.1799
0.00411587 -2.64555 -2.98255
0.00411348 -1.00362 -4.37311
0.00411109 1.35131 -4.80022
0.0041087 3.83688 -3.92215
0.00410631 5.72576 -1.74854
0.00410393 0.199407 0.0411723
0.00410155 0.536512 0.455221
0.00409917 0.432083 1.12338
0.00409679 -0.225603 1.68861
0.00409442 -1.30326 1.77692
0.00409205 -2.44842 1.14663
0.00408969 -3.19745 -0.198562
0.00408732 -3.13392 -1.97364
0.00408496 -2.04762 -3.67119
0.0040826 -0.0412787 -4.70343
0.00408025 2.45457 -4.58832
0.00407789 4.7722 -3.12368
0.00407554 6.18398 -0.493116
0.0040732 0.383814 0.171598
0.00407085 0.5573 0.732532
0.00406851 0.212784 1.4044
0.00406617 -0.657845 1.80424
0.00406383 -1.81783 1.59811
0.0040615 -2.84929 0.640644
0.00405917 -3.28832 -0.941424
0.00405684 -2.7903 -2.75391
0.00405451 -1.27234 -4.23336
0.00405219 1.01627 -4.81433
0.00404987 3.52515 -4.11757
0.00404755 5.53514 -2.10089
0.00404523 0.135952 0.0187764
0.00404292 0.512177 0.379147
0.00404061 0.477754 1.03202
0.0040383 -0.108708 1.63363
0.004036 -1.14692 1.80343
0.0040337 -2.30888 1.27442
0.0040314 -3.13721 0.0136481
0.0040291 -3.19954 -1.72988
0.0040268 -2.25049 -3.47161
0.00402451 -0.348145 -4.62416
0.00402222 2.11751 -4.68054
0.00401994 4.50152 -3.39335
0.00401765 6.072 -0.892511
0.00401537 0.332096 0.122754
0.00401309 0.561055 0.643918
0.00401082 0.291185 1.32238
0.00400854 -0.518186 1.78017
0.00400627 -1.66101 1.66812
0.004004 -2.73689 0.809382
0.00400174 -3.27864 -0.707268
0.00399947 -2.91657 -2.5194
0.00399721 -1.52702 -4.0775
0.00399495 0.685367 -4.80543
0.0039927 3.20458 -4.28913
0.00399044 5.32326 -2.43575
0.00398819 0.0706938 0.00501859
0.00398595 0.480349 0.308479
0.0039837 0.513332 0.939817
0.00398146 -0.000118382 1.57087
0.00397922 -0.992966 1.81729
0.00397698 -2.16342 1.38888
0.00397474 -3.0632 0.216994
0.00397251 -3.24687 -1.48625
0.00397028 -2.43606 -3.26154
0.00396805 -0.6447 -4.52518
0.00396583 1.77913 -4.74852
0.0039636 4.21632 -3.64105
0.00396138 5.93456 -1.27927
0.00395916 0.275863 0.0816265
0.00395695 0.555702 0.558251
0.00395474 0.359706 1.23643
0.00395253 -0.384699 1.7458
0.00395032 -1.50311 1.72458
0.00394811 -2.61492 0.966113
0.00394591 -3.25266 -0.478604
0.00394371 -3.02425 -2.28046
0.00394151 -1.76674 -3.90677
0.00393931 0.36016 -4.77412
0.00393712 2.87695 -4.43653
0.00393493 5.09161 -2.75187
0.00393274 0.00450103 2.02596e-05
0.00393055 0.441648 0.243861
0.00392837 0.538924 0.847693
0.00392619 0.0996682 1.5012
0.00392401 -0.842362 1.81891
0.00392183 -2.01319 1.48983
0.00391966 -2.97631 0.410603
0.00391749 -3.27625 -1.24408
0.00391532 -2.60385 -3.04237
0.00391315 -0.929701 -4.40751
0.00391099 1.44117 -4.7925
0.00390883 3.91831 -3.86605
0.00390667 5.77284 -1.65178
0.00390451 0.215918 0.0485818
0.00390236 0.541663 0.476338
0.0039002 0.418191 1.14749
0.00389805 -0.258114 1.70185
0.00389591 -1.34523 1.76765
0.00389376 -2.4845 1.11033
0.00389162 -3.21108 -0.256541
0.00388948 -3.11331 -2.03851
0.00388734 -1.99066 -3.72247
0.0038852 0.0421456 -4.72113
0.00388307 2.54404 -4.55961
0.00388094 4.84172 -3.04814
0.00387881 6.20941 -0.384664
0.00387668 0.396747 0.185876
0.00387456 0.554713 0.756559
0.00387244 0.190232 1.42549
0.00387032 -0.696038 1.80883
0.0038682 -1.85934 1.57713
0.00386608 -2.87753 0.593683
0.00386397 -3.28807 -1.00466
0.00386186 -2.75349 -2.81553
0.00385975 -1.20199 -4.27226
0.00385765 1.1053 -4.81284
0.00385554 3.60923 -4.06776
0.00385344 5.58812 -2.00856
0.00385134 0.153089 0.0239121
0.00384925 0.519425 0.398937
0.00384715 0.466562 1.05651
0.00384506 -0.139097 1.64909
0.00384297 -1.18843 1.79762
0.00384088 -2.34672 1.24163
0.0038388 -3.15466 -0.0421251
0.00383672 -3.18383 -1.79494
0.00383464 -2.19804 -3.52593
0.00383256 -0.267251 -4.64727
0.00383048 2.20761 -4.65832
0.00382841 4.57521 -3.32353
0.00382634 6.1044 -0.787149
0.00382427 0.346365 0.135044
0.0038222 0.56096 0.6673
0.00382013 0.271231 1.34468
0.00381807 -0.554866 1.78763
0.00381601 -1.70299 1.65078
0.00381395 -2.76785 0.765526
0.0038119 -3.28284 -0.769234
0.00380984 -2.8847 -2.58244
0.00380779 -1.46052 -4.12058
0.00380574 0.773134 -4.81002
0.00380369 3.29085 -4.24572
0.00380165 5.38177 -2.34821
0.00379961 0.0882273 0.00783519
0.00379757 0.489537 0.326762
0.00379553 0.504825 0.964441
0.00379349 -0.0282405 1.58832
0.00379146 -1.03374 1.81481
0.00378943 -2.20273 1.35967
0.0037874 -3.08423 0.163674
0.00378537 -3.23602 -1.55115
0.00378334 -2.38828 -3.31852
0.00378132 -0.566681 -4.55345
0.0037793 1.86942 -4.73274
0.00377728 4.29372 -3.57717
0.00377526 5.97364 -1.17744
0.00377325 0.291259 0.0918197
0.00377124 0.557998 0.580766
0.00376923 0.342406 1.25968
0.00376722 -0.419657 1.75594
0.00376521 -1.54527 1.71084
0.00376321 -2.64833 0.925513
0.00376121 -3.26115 -0.538994
0.00375921 -2.99735 -2.34454
0.00375721 -1.70431 -3.95369
0.00375521 0.446258 -4.78462
0.00375322 2.96492 -4.39959
0.00375123 5.15525 -2.66945
0.00374924 0.0221984 0.000492974
0.00374725 0.452606 0.260471
0.00374527 0.533066 0.872205
0.00374329 0.0739384 1.52041
0.00374131 -0.882151 1.81965
0.00373933 -2.05366 1.46423
0.00373735 -3.00069 0.359961
0.00373538 -3.27015 -1.30846
0.0037334 -2.56086 -3.10163
0.00373143 -0.85488 -4.44067
0.00372947 1.53118 -4.7831
0.0037275 3.99896 -3.80829
0.00372554 5.81828 -1.5539
0.00372357 0.232224 0.0565875
0.00372161 0.546231 0.497775
0.00371966 0.403578 1.17145
0.0037177 -0.291164 1.71447
0.00371575 -1.38728 1.75746
0.0037138 -2.52005 1.07311
0.00371185 -3.22366 -0.315066
0.0037099 -3.09137 -2.10326
0.00370795 -1.93252 -3.77288
0.00370601 0.126183 -4.73734
0.00370407 2.63325 -4.52916
0.00370213 4.91007 -2.97112
0.00370019 6.23293 -0.275467
0.00369826 0.40929 0.200663
0.00369632 0.551447 0.78072
0.00369439 0.166999 1.44622
0.00369246 -0.734598 1.81264
0.00369054 -1.90066 1.55518
0.00368861 -2.90498 0.545921
0.00368669 -3.28661 -1.06818
0.00368477 -2.71537 -2.8767
0.00368285 -1.13067 -4.30999
0.00368093 1.19459 -4.8097
0.00367902 3.69266 -4.01627
0.0036771 5.63956 -1.91502
0.00367519 0.170081 0.0296595
0.00367328 0.526128 0.4191
0.00367137 0.45465 1.08092
0.00366947 -0.170068 1.66398
0.00366757 -1.23009 1.79089
0.00366566 -2.38412 1.20789
0.00366377 -3.17112 -0.0985119
0.00366187 -3.16683 -1.85999
0.00365997 -2.14438 -3.57947
0.00365808 -0.185647 -4.66896
0.00365619 2.29759 -4.63437
0.0036543 4.64783 -3.25217
0.00365241 6.13498 -0.680919
0.00365053 0.360297 0.147876
0.00364864 0.56021 0.690875
0.00364676 0.250578 1.36668
0.00364488 -0.591969 1.79434
0.003643 -1.74487 1.63247
0.00364113 -2.79811 0.720826
0.00363925 -3.28587 -0.83157
0.00363738 -2.85152 -2.64514
0.00363551 -1.39297 -4.16258
0.00363364 0.861278 -4.81301
0.00363178 3.37658 -4.2006
0.00362991 5.43884 -2.25937
0.00362805 0.105678 0.0112736
0.00362619 0.498224 0.345464
0.00362433 0.495604 0.989053
0.00362247 -0.0569805 1.60527
0.00362062 -1.07474 1.81145
0.00361877 -2.24168 1.32949
0.00361691 -3.10434 0.109676
0.00361507 -3.22388 -1.61612
0.00361322 -2.33925 -3.37482
0.00361137 -0.487863 -4.58037
0.00360953 1.9597 -4.71526
0.00360769 4.37017 -3.51169
0.00360585 6.01097 -1.07462
0.00360401 0.306375 0.102582
0.00360217 0.559667 0.603534
0.00360034 0.324394 1.28271
0.00359851 -0.455094 1.76538
0.00359668 -1.58741 1.69614
0.00359485 -2.68111 0.884031
0.00359302 -3.26851 -0.599833
0.0035912 -2.96912 -2.40839
0.00358937 -1.64078 -3.99962
0.00358755 0.532841 -4.79357
0.00358573 3.05249 -4.36092
0.00358392 5.21756 -2.58564
0.0035821 0.039875 0.00159213
0.00358029 0.463109 0.277542
0.00357848 0.526505 0.896771
0.00357667 0.0475595 1.53917
0.00357486 -0.922228 1.81954
0.00357305 -2.09385 1.43767
0.00357125 -3.0242 0.308583
0.00356944 -3.26279 -1.37301
0.00356764 -2.51658 -3.16033
0.00356584 -0.779176 -4.47254
0.00356405 1.62131 -4.772
0.00356225 4.07878 -3.74888
0.00356046 5.86205 -1.45493
0.00355867 0.248308 0.0651844
0.00355688 0.550205 0.519521
0.00355509 0.388247 1.19525
0.0035533 -0.32474 1.72645
0.00355152 -1.42938 1.74633
0.00354973 -2.55506 1.03498
0.00354795 -3.23516 -0.374115
0.00354617 -3.06811 -2.16787
0.00354439 -1.87322 -3.8224
0.00354262 0.210808 -4.75205
0.00354085 2.72218 -4.49698
0.00353907 4.9772 -2.89263
0.0035373 6.25453 -0.165558
0.00353553 0.421429 0.21595
0.00353377 0.547496 0.804997
0.003532 0.143091 1.46657
0.00353024 -0.773509 1.81563
0.00352848 -1.94179 1.53226
0.00352672 -2.93164 0.497373
0.00352496 -3.28392 -1.13196
0.0035232 -2.67594 -2.9374
0.00352145 -1.05839 -4.34653
0.0035197 1.28411 -4.80491
0.00351794 3.77539 -3.96309
0.00351619 5.68944 -1.82028
0.00351445 0.186913 0.036015
0.0035127 0.532276 0.439621
0.00351096 0.442018 1.10524
0.00350921 -0.201608 1.67828
0.00350747 -1.27188 1.78325
0.00350574 -2.42106 1.17322
0.003504 -3.18656 -0.155494
0.00350226 -3.14851 -1.92499
0.00350053 -2.08951 -3.63222
0.0034988 -0.103358 -4.68921
0.00349707 2.38741 -4.60869
0.00349534 4.71935 -3.17928
0.00349361 6.1637 -0.573853
0.00349189 0.373879 0.161241
0.00349016 0.558797 0.71463
0.00348844 0.229229 1.38837
0.00348672 -0.629483 1.80029
0.003485 -1.78663 1.61319
0.00348328 -2.82765 0.675293
0.00348157 -3.28772 -0.894252
0.00347986 -2.81701 -2.70747
0.00347814 -1.32438 -4.20347
0.00347643 0.949769 -4.81438
0.00347473 3.46174 -4.15377
0.00347302 5.49445 -2.16924
0.00347131 0.123029 0.0153318
0.00346961 0.506397 0.364573
0.00346791 0.485668 1.01364
0.00346621 -0.0863289 1.62168
0.00346451 -1.11594 1.8072
0.00346281 -2.28025 1.29836
0.00346112 -3.1235 0.055018
0.00345943 -3.21045 -1.68115
0.00345773 -2.28897 -3.43043
0.00345604 -0.408268 -4.60592
0.00345436 2.04994 -4.69605
0.00345267 4.44564 -3.44462
0.00345098 6.04653 -0.970855
0.0034493 0.321196 0.113906
0.00344762 0.560701 0.626538
0.00344594 0.305673 1.30549
0.00344426 -0.490995 1.77411
0.00344258 -1.62951 1.68048
0.00344091 -2.71324 0.841677
0.00343924 -3.27473 -0.661101
0.00343756 -2.93957 -2.47196
0.00343589 -1.57615 -4.04453
0.00343422 0.61988 -4.80094
0.00343256 3.13962 -4.32052
0.00343089 5.27851 -2.50045
0.00342923 0.057514 0.00331703
0.00342757 0.473144 0.295064
0.00342591 0.51924 0.921373
0.00342425 0.0205391 1.55747
0.00342259 -0.962574 1.81857
0.00342093 -2.13375 1.41014
0.00341928 -3.04683 0.256486
0.00341763 -3.25417 -1.4377
0.00341597 -2.47102 -3.21842
0.00341433 -0.702611 -4.50313
0.00341268 1.71152 -4.75921
0.00341103 4.15775 -3.68784
0.00340939 5.90414 -1.35489
0.00340774 0.264156 0.074367
0.0034061 0.553577 0.541559
0.00340446 0.372199 1.21886
0.00340282 -0.358831 1.73776
0.00340119 -1.47153 1.73425
0.00339955 -2.5895 0.995946
0.00339792 -3.24558 -0.433669
0.00339629 -3.04353 -2.23231
0.00339466 -1.81277 -3.87099
0.00339303 0.295993 -4.76524
0.0033914 2.81079 -4.46307
0.00338977 5.04309 -2.8127
0.00338815 6.27418 -0.0549695
0.00338653 0.43315 0.231727
0.00338491 0.542856 0.829375
