ply
format ascii 1.0 
element vertex 1837
property float32 x
property float32 y
property float32 z
end_header
-0.809788 -2.88631 -2.48175
1.47253 3.1874 -0.681492
3.44181 2.5148 0.922619
0.774265 0.394871 2.1788
-0.0377617 -3.27304 0.599979
-2.25841 3.32074 -3.27144
-2.03164 -2.69204 -0.238911
1.53209 3.49286 1.45093
-0.850864 0.591137 -2.0825
2.60412 -2.72532 -1.26407
-3.41316 1.73324 -0.146664
-1.09093 -2.61208 -0.494801
2.83541 2.86417 -2.04735
1.94686 2.23863 1.35124
-0.988697 -0.52264 2.61373
-1.25642 2.44332 1.86712
2.0402 -3.35063 -3.36045
-0.576214 -1.84674 3.13613
0.87682 3.22088 0.19173
-3.4546 -1.69733 2.00194
-0.065731 -2.62874 -0.332165
2.44319 -3.03818 1.05947
-2.1397 0.406422 -0.143703
2.74707 -0.293705 -1.44061
1.29345 -1.88238 1.04047
0.625042 0.132641 -0.0517464
0.268314 2.41175 0.13316
-0.131092 1.38461 1.29014
-3.4749 -3.25895 0.975491
1.53077 2.1534 2.81369
-1.86875 1.70252 3.18867
2.72626 -2.43056 -3.38504
-0.952976 -3.52291 0.0250969
0.610134 -2.12707 -3.33596
-1.88493 -2.44735 -2.21462
1.06704 1.84983 2.45356
-2.33533 -1.06067 0.797962
2.49035 2.21137 -1.35296
-0.601513 -1.45526 -0.0763817
-1.85517 -0.926434 -1.99033
-2.73384 -3.46302 3.24772
-2.58335 -1.79623 -3.25019
1.44546 -3.13732 -3.23756
1.64504 -1.08657 -1.36091
2.96595 3.05909 -0.804539
1.35216 -2.89318 -2.49025
-0.38541 1.70939 0.984623
1.26535 2.9096 -0.871357
-2.87838 1.33259 2.20892
-1.33318 -3.33627 -2.78486
-2.15281 -1.6559 -2.71235
-1.86746 -0.854214 0.0269585
-1.1013 0.566151 -0.10664
1.07332 -1.52392 3.34232
-3.26675 3.12484 2.33406
-2.22146 2.55526 -3.09465
1.76688 0.840069 1.61846
-1.64001 -3.08088 1.4607
-3.49844 1.72001 -0.742237
-2.74777 3.37716 0.457027
-2.45639 -2.02337 1.80484
0.574284 -0.172459 -1.5849
-2.06789 0.963802 1.98497
-2.79292 3.39804 -3.07449
3.07668 0.404011 -3.48519
2.98574 0.672794 2.07379
2.06867 2.45505 -0.621677
-0.00616074 0.154583 -0.698833
2.25532 1.51829 -2.04618
-0.823185 1.02357 -2.73637
-2.08569 1.81134 -1.22421
-0.666874 3.35866 1.60705
-2.21744 0.397411 0.0353203
-2.28821 1.86506 -0.102177
-2.76968 2.60767 -2.76551
2.83964 2.617 1.44281
-0.849384 2.06721 -0.169483
1.98732 0.600346 -3.08225
2.94486 -3.47316 1.97158
-3.32705 3.31769 0.459614
-0.547535 -1.57284 -1.7964
-2.47602 -0.122997 -1.97327
0.563023 2.74566 2.42786
-2.6065 3.53194 0.757381
-1.83648 -2.29181 0.297703
2.61005 -1.52595 -0.620831
-0.0949669 -1.22184 -2.62097
-0.173496 0.932491 2.51491
-1.73745 -1.14754 2.04547
1.72588 -0.738216 1.82763
-3.13787 -1.06154 -2.81256
-2.10742 1.92646 0.599972
-3.21509 3.45416 0.278286
1.54601 -0.0501671 0.274693
-1.69182 0.878864 2.51842
0.691067 2.0461 -3.07488
1.60563 2.12062 -1.293
0.053196 -2.0417 3.17502
-0.436871 1.32034 -0.508053
-2.67659 2.58661 1.75745
-1.95362 1.24514 -3.37144
2.65007 1.11099 3.09055
-1.139 2.00729 2.47736
2.67123 3.32773 -1.10834
1.1223 0.806393 -3.29683
2.58296 2.11829 2.28481
-2.24558 -0.726177 0.869892
-2.13791 -2.65608 1.83191
0.357761 1.40084 -0.383282
-1.42032 -2.57157 -0.864025
-1.25623 -2.24444 -3.15442
-2.23303 -0.194347 1.4921
3.24805 -1.07981 -0.0361443
-0.927639 1.31672 -0.775761
-0.688931 -0.0793953 3.03435
-1.93966 -2.02444 1.61711
2.93396 -2.97702 -2.6446
1.23034 -2.21888 -1.29696
-2.22029 -0.821247 3.10759
0.451214 3.07205 -3.53132
0.30051 -2.41562 -2.24023
-1.74292 0.331867 1.10096
1.22465 1.63437 3.02486
-2.61846 1.81507 0.274235
-3.11964 -2.6481 -2.34069
3.033 0.198505 -0.829601
3.39212 1.26257 -0.802898
-1.97219 0.129177 0.51376
-2.40014 -1.17602 -3.37484
-2.39592 -0.392597 3.23275
-0.632435 -3.47692 -1.71841
-3.06701 0.359127 2.14899
-3.1095 1.61992 -0.283985
0.700268 -1.22277 -2.53626
1.89511 -0.305698 -1.64882
-3.00184 1.1102 1.5534
-0.801022 0.0758476 -0.251377
-2.8228 -0.599384 3.41333
-2.6621 1.96395 -1.83004
-3.4967 3.09935 1.3129
-2.21139 -2.36392 1.37152
2.94132 0.539181 -2.3367
0.121799 0.475887 2.81875
0.58926 0.90192 -0.939556
3.47597 -0.933346 1.75846
0.962025 -3.10559 -1.19869
-2.82489 -2.10371 2.41269
-2.4789 0.630802 -1.25404
-0.773403 0.811726 -2.82562
-1.99604 1.15335 3.27745
2.3792 2.19218 -2.622
-3.02485 3.51632 0.920902
2.79762 -3.14896 -1.13874
-2.20929 -0.0234413 3.29871
-2.98635 -2.96972 -1.70198
-0.649509 3.50998 -0.803852
-1.30416 1.93647 0.627972
0.977329 2.1153 -2.80857
1.15543 3.17193 2.53868
0.89735 -0.668819 0.156498
2.27907 0.870678 -1.71867
-0.33556 -0.817471 -1.2697
1.52942 -0.306789 -0.883121
1.76078 -0.576519 2.09716
3.06251 0.749729 2.13116
-1.27687 1.29891 3.1056
2.35482 -2.41795 0.97472
-2.98929 -0.718395 -0.977329
3.08493 -3.2766 -0.872746
-0.825924 0.882549 1.99397
1.99094 -1.75563 -1.2027
-2.81429 3.52716 0.983547
-0.693691 0.124249 -2.39059
-2.66388 -1.88187 0.568424
3.00281 2.88263 -2.21738
2.04107 3.4096 3.08525
-1.05156 -1.40281 -2.86824
2.50664 -1.58352 -0.0510979
-2.43345 -1.03728 -0.323978
3.09605 -2.0197 -2.97696
-2.174 0.158092 -1.72888
2.34508 -1.3865 -0.737255
3.49002 -1.19707 2.92253
0.522915 1.11296 -3.02669
2.30925 1.98461 -2.6796
1.85897 2.45189 -2.80553
1.99445 0.425602 -1.20462
-1.59218 -3.1615 0.21558
1.08756 2.34887 2.18202
1.64613 3.45095 -3.37322
3.45279 2.47965 0.788593
-1.35182 -3.22989 2.93763
-2.49664 2.65073 -1.32679
-0.987797 3.07341 2.78988
-0.663677 -0.471027 2.23896
-0.465488 -1.69731 0.623493
1.86543 3.16538 -2.48644
-0.98634 1.62429 -2.64421
-2.33986 3.03583 3.24018
-1.70935 0.587856 2.62378
2.61477 -1.83336 1.5679
1.48505 -1.44793 1.87355
3.16198 0.73579 1.45693
3.41632 2.77468 0.994801
2.11975 -2.28046 -3.01176
-1.32411 0.591396 -0.705349
-0.806828 -3.40963 -1.0755
1.08449 1.45952 -2.51856
0.257328 3.4769 -3.01826
0.345577 -1.39849 2.10513
-1.62206 -0.104122 3.27549
-2.28405 -1.02488 -1.70797
2.1766 3.46389 -3.50772
-0.364132 -2.98074 2.27069
-0.372173 -3.09995 3.52576
1.9262 2.02352 0.581623
-2.21666 -2.83612 0.175716
-1.19968 -0.107418 -2.43211
-0.682407 -3.09027 -1.49074
-2.64463 1.70259 0.646305
-1.90467 -1.48737 -3.52517
-0.608929 0.426105 -1.01451
-0.581112 1.14578 -1.61798
-1.84596 -0.213154 -1.06318
-1.85573 2.42643 -1.15941
1.72961 -1.01309 -2.67143
-1.63021 -2.62243 -2.50383
-0.0585976 -1.83536 1.92428
1.98619 0.500492 2.36954
-1.43485 -3.24926 0.00477982
-1.42448 -2.89017 2.05294
0.564724 -1.79113 -0.588299
2.48228 2.13548 -3.50987
-1.64825 -1.98117 0.812511
0.727871 0.176594 -0.828403
2.06016 1.32458 1.16223
3.09186 0.518658 2.54352
1.48061 1.89217 -2.82737
0.782803 -1.70196 2.20865
-2.74795 3.28795 1.96311
3.30871 -1.68243 2.60847
-0.815121 -0.103191 -1.71819
-0.789455 3.46525 3.42101
3.02678 2.88018 -2.09569
-0.868977 -2.3036 1.08462
-3.24228 1.9598 -0.126331
2.83677 0.484432 -3.14321
-3.05795 0.508945 1.75268
2.68624 -2.07779 -3.01663
0.581997 2.24054 -3.26421
-0.345066 3.49631 -0.942921
0.940464 2.73767 1.95761
0.825939 -2.14479 2.88733
2.73397 0.601284 2.23198
-0.24876 0.560711 2.93209
3.16044 3.22727 0.824551
3.02095 2.9887 -1.22655
1.70629 2.75813 2.81793
2.22519 3.23571 -3.32721
1.9647 1.8546 2.91705
-3.04557 -1.09893 2.87783
3.44757 1.55972 1.54815
2.26755 -0.567165 2.93889
0.432178 3.26249 0.00464249
-0.171261 1.92911 -3.502
-2.88224 -0.855183 2.72899
-1.10508 -1.76209 3.18216
-2.3545 -1.27667 2.40476
-1.14618 -3.10592 1.57312
-1.76466 2.123 -0.107807
-2.95418 0.552166 1.79698
2.12951 2.04213 -0.178837
1.00105 1.42236 2.25772
-3.06166 0.154377 2.45286
-2.02812 -3.48079 0.846439
-2.83466 -0.11652 2.99498
3.35122 0.00495529 -1.30265
1.68863 2.9036 0.956219
-0.273777 -2.98643 0.854023
3.15395 -1.12889 -0.558514
0.883579 0.641987 3.52919
-2.36261 0.691525 1.50397
3.43064 -1.24632 -0.609203
2.34797 3.29026 2.54889
0.127064 -2.30693 2.07182
-0.413494 -0.799511 -2.11205
1.81939 -0.630451 2.42844
-1.29174 0.185238 1.7965
3.09782 -1.66166 1.81379
-0.996227 2.60009 -1.85063
-0.534389 1.6867 2.32689
-3.09777 0.0347404 -0.0489311
0.828564 1.20767 2.24028
-0.689892 0.570965 2.99501
-1.15361 -0.148411 -2.84745
0.269878 3.51419 -0.643238
-1.36903 -0.966656 1.73003
3.43119 -1.6828 -1.62027
2.70945 0.561001 0.72179
-2.67671 0.591473 -0.21365
2.6539 2.59896 -2.5943
-0.930561 -1.47096 0.444157
-1.75763 -0.0331917 -1.88371
-2.29815 -3.27198 2.69098
-2.14187 -0.958149 -0.99297
0.218609 0.891964 -1.54613
-1.58689 -1.37369 1.02275
0.796558 0.260998 2.34367
-2.01719 1.15666 -0.162678
1.3047 0.330578 -3.10674
1.71412 0.657589 3.02776
-0.377262 -0.224041 -1.51055
0.742748 2.84912 1.45998
-0.10181 -2.44404 1.72354
1.90894 -1.73847 -3.30196
-3.17273 -0.876621 2.12554
2.38556 2.34571 -3.3155
0.661877 -2.77672 0.48103
-3.03633 1.55537 -2.42966
-2.60754 3.07372 1.43645
-2.64713 0.311069 -1.97331
-0.622143 -0.510349 1.80637
-2.6977 2.11611 1.11995
2.56137 -0.676678 1.67963
2.79495 -3.31402 2.94488
0.853138 2.13045 -1.99909
1.07317 2.96144 -3.18892
-0.981335 1.27965 -2.96192
0.124538 -1.59401 3.12899
-1.50636 -0.0948067 2.13536
-0.475948 0.301373 -0.620922
-2.20511 1.18978 1.87245
1.91856 -2.9679 0.453022
0.0626564 -2.13006 3.31188
-1.05981 3.43503 3.00158
0.476635 3.16263 2.59649
0.291439 0.480236 1.49059
1.86506 -0.982128 -0.765293
0.926693 1.04026 0.644421
-1.0053 -2.90255 -2.98592
1.90931 -1.40519 1.85099
-0.285587 2.65439 -0.49477
-3.3681 3.453 0.54105
-2.59175 2.83603 1.94652
-3.12571 -1.16867 2.31421
2.4745 1.77524 1.9413
-0.102261 -1.28366 -1.64581
2.66798 3.0115 0.375782
0.776867 1.34102 -2.65131
0.794666 -1.79963 -1.01833
-1.4217 0.730602 0.580196
2.61907 -0.427433 -0.83276
-0.90723 2.82251 0.0847054
-2.49624 3.45813 -1.14662
2.82168 -3.20097 1.22025
0.695637 -3.32296 -0.540043
-3.48571 -3.384 2.18002
-0.106205 -0.48254 1.65599
1.77802 -0.350094 -1.07034
-3.30766 3.43049 0.133747
0.276257 0.689625 -3.203
-3.09204 -3.2676 -0.0948982
-0.00361252 2.35518 -0.339733
2.3853 -2.08758 -0.948948
-0.461796 -1.5801 -0.614384
3.5337 -1.82577 -0.401814
1.64637 2.4054 -0.782093
-0.764996 1.92341 3.2709
1.16838 -0.718327 -1.14654
-2.2334 -3.00766 -1.25158
-1.90087 -2.77978 2.44176
2.00795 1.03201 2.17788
-2.39913 0.943691 0.46571
0.187458 -2.59546 1.91366
3.10861 2.79357 -2.73379
-0.828739 -0.203762 -1.55584
2.9247 -0.205601 -2.68598
2.12825 -2.62658 -3.2981
-2.55382 0.143955 -1.01271
-0.269871 -2.22319 -0.484829
-1.89546 -0.921062 -0.260891
-2.25312 0.181789 -2.76442
1.74813 -1.87761 2.18299
0.59444 -1.27301 3.12307
0.864368 2.44998 3.38111
2.84406 1.49124 -0.890003
-3.37745 -2.40485 2.43993
3.39923 3.52357 2.81707
-1.68082 2.11629 -0.574512
1.36988 3.098 0.737827
-2.95835 -1.23922 2.82048
-1.18724 0.40086 -1.06507
-3.07159 1.68328 1.06104
3.0552 0.364056 3.32356
2.90078 -2.57704 3.238
-2.05658 1.82286 0.661892
-3.15218 0.599575 1.79258
3.20042 0.225842 1.78061
-1.44144 0.557728 0.36137
2.30011 2.41244 -0.607975
1.05324 0.714977 1.68834
-2.54737 1.29216 -0.446331
2.04921 3.10864 -2.8304
1.30542 -3.49849 1.06919
1.00788 -2.97882 1.49587
-1.39757 2.92568 -0.748615
-3.14053 -1.66643 3.38649
3.17562 -1.81489 1.0768
-0.530361 -1.68182 -1.901
3.3972 0.412273 3.51516
1.55001 0.176846 0.694599
-2.96367 -2.83726 -0.548779
-1.79036 -1.84909 -0.975674
2.81437 3.20383 0.0613747
1.24289 1.4419 0.086277
-3.04126 -1.61757 -0.523579
-2.1903 0.520397 1.34552
1.89022 1.9154 3.53435
3.52475 1.02367 -1.683
2.97255 -3.04222 1.73299
1.13162 -3.18056 -1.6257
-2.95269 2.37317 -0.45924
-0.924648 2.41321 0.695385
2.14045 -2.91268 1.36368
-1.30881 -2.63385 -0.729954
2.17133 1.61276 1.18801
-0.550495 2.10703 -1.35894
-0.551678 3.45226 -2.97907
1.30085 1.27513 1.58014
0.49831 0.732525 1.54163
1.87633 1.16954 2.36479
-2.65026 -1.23437 1.20242
2.58066 -1.18335 0.0800972
0.40881 1.42754 1.70295
2.68258 0.500637 2.07283
-0.196758 2.72736 0.150051
1.97984 0.831341 -1.27845
2.00449 -2.25469 -0.893543
-0.482723 0.729168 -3.15395
-1.47663 -1.03733 2.11411
-2.64737 2.4647 -0.783695
1.55877 0.273685 1.51747
-1.89667 2.15896 -3.20141
2.81 1.20409 1.22985
0.815479 -2.45445 -2.33686
-2.57 3.23185 -2.67685
0.155262 -1.03226 1.69002
2.26544 -2.11977 2.97087
2.11521 3.42025 0.632687
0.161968 -0.129818 2.59908
2.91381 1.92909 1.52825
0.363926 2.28543 -2.26542
0.698048 0.308666 3.42908
-1.13945 1.41571 1.09764
0.0592155 1.15837 1.64691
0.917896 -1.56169 1.34322
-0.459431 -0.127972 -2.75639
-1.0241 3.03101 -1.34063
2.61231 1.2291 -1.98772
1.67585 -0.191227 1.418
-0.331432 -3.09661 -0.720264
1.93869 3.35273 -1.97036
1.30042 1.18113 1.34202
-0.669292 -2.18818 -0.309612
-2.55792 -0.32391 -2.68678
2.78902 -3.33204 -0.712933
-3.5029 0.589573 2.69463
-1.30799 -3.40539 2.19011
-0.291996 -0.42577 -0.648144
-1.40953 -1.349 -3.3749
1.40574 -2.20868 -2.93598
3.43909 0.463612 3.42048
1.24558 -1.66505 0.534252
-2.59957 -2.90017 2.3498
-2.28263 -0.0339241 -2.04146
1.53997 0.411877 -1.83797
0.167255 -0.866451 2.75532
-0.709988 -0.83382 2.88546
2.1774 0.861904 -1.60765
2.33803 -1.96563 1.57888
2.40577 -0.371441 2.37393
2.7589 -2.50124 -0.697994
-0.774197 -3.1295 1.64067
-2.49175 2.65162 2.27604
0.00232315 3.05577 -1.82523
1.16807 -1.76239 2.12218
0.387859 2.7813 -1.81162
0.205975 -0.586979 0.890095
1.60204 2.23857 -1.31535
-0.35461 1.88044 -0.277256
-2.04803 0.151119 2.88684
1.25769 -0.510456 3.38932
-0.637165 -1.8189 -2.27571
-2.42847 0.942432 3.37962
-0.718166 2.98622 2.89985
-2.66333 -1.07881 -2.92989
-0.939419 -3.44627 2.85513
-3.11667 0.945309 -0.267384
-0.896488 -2.91607 -2.09616
2.36179 1.68969 2.78799
1.18128 -1.73227 0.403576
1.03506 -0.244762 2.89684
2.29488 -2.5226 -2.4576
2.13897 -0.156048 2.02037
1.97147 0.951015 0.939236
2.0453 -3.30268 3.39596
2.36489 -1.43048 -3.11766
-1.96984 0.633816 0.831371
-1.06228 1.05268 0.919025
-0.809826 3.15991 -0.926815
2.59747 1.45435 0.876453
1.95877 -0.899906 -1.90384
3.03671 -2.40038 -1.42273
0.989727 2.89822 2.95676
-1.13839 2.50165 0.372242
-1.27796 0.405773 1.07328
-1.3919 -1.61628 2.64651
2.97501 -2.78691 -0.255207
-0.173313 -1.75303 -2.26988
3.43541 1.72022 -2.6455
0.776325 -2.62514 3.34438
1.8762 3.50786 -1.62288
-2.08206 1.39929 -0.48772
-3.19265 0.368649 -0.656849
0.71513 -2.17716 -1.69073
-2.27894 0.21999 1.71876
-3.16796 2.94575 -3.43305
0.580547 -2.51349 -2.21624
1.8462 -2.60583 -0.433743
2.20442 0.75639 -2.78087
1.48145 0.656261 -2.40229
-2.67696 -1.10295 -2.96178
0.370853 -2.76228 1.97304
2.71772 -1.84062 -1.19384
-3.04036 -1.49773 0.632717
2.21394 3.22112 -2.68283
2.78461 -3.12517 3.26664
-2.96717 -1.7576 -1.78238
-0.39719 1.82666 -0.85268
1.35747 -0.394482 3.43924
1.9589 -1.7256 1.02816
3.53265 -2.77968 2.92893
1.43834 -1.92111 3.17037
-2.29103 1.45346 -1.20578
1.87722 1.63565 0.300205
2.19811 2.13083 -0.546024
2.3974 1.27742 0.864338
-2.92051 0.526501 2.11045
-0.769474 1.09487 0.401585
-1.39758 -3.36967 -3.52843
3.16611 0.99152 -1.71849
2.55951 0.414883 -1.49446
3.19434 0.411999 -0.411846
-2.07879 -1.68519 -1.49392
1.75695 -0.972507 3.14546
-1.32461 -3.16264 1.74076
2.54345 -3.50006 -0.517353
1.11837 2.43287 -3.52639
-2.01558 2.51608 0.572201
-2.54029 -2.32074 1.73806
-1.25507 -0.714603 -0.80595
1.78601 -0.0840263 2.61265
-2.16137 -1.59187 -0.510883
-0.119755 -2.46488 1.80764
-1.04165 -1.00814 -3.23221
-1.83642 -2.31854 -1.85932
0.649944 -0.639431 -2.35566
1.12728 -1.63152 3.08093
-1.83606 3.02238 2.06147
2.90573 -3.06055 2.74445
-0.435757 -2.06531 -1.50569
-1.35864 0.215153 1.41401
2.1342 -2.06619 -2.7134
-0.125507 0.307972 -1.64274
0.177814 3.19194 1.35284
1.32222 -0.385242 2.03802
2.50209 0.782055 -2.13694
2.04748 -2.10353 -0.764744
0.0416069 2.55928 -1.80971
-1.28129 -1.81231 -1.33473
1.74855 -2.97393 -0.39632
-0.372974 0.125843 2.82255
-0.082653 2.77092 -1.77917
2.27832 0.837772 2.06433
-0.436184 -3.35508 1.18892
-1.9337 -0.17355 -2.73185
-0.535107 -1.38687 1.58574
1.70387 -2.95213 3.48592
3.42969 -3.44018 2.50966
-1.97239 -0.394855 -3.37
1.16683 2.85939 -1.8084
0.453846 0.540592 1.32116
2.21021 3.17134 0.0247383
0.207195 0.55315 -2.67302
-1.13942 -1.23587 -2.49257
-0.86755 1.86348 1.3376
-2.34916 3.46531 3.48626
-2.39878 -1.13714 -3.0014
-3.42465 -2.96881 -3.43786
-2.79093 -3.07465 0.171001
-1.59561 -1.5115 -1.03696
3.26109 2.65905 3.03917
0.750294 -0.422642 2.67497
1.08099 -1.27978 -0.83923
2.59214 1.93113 1.46043
0.394199 -2.74382 -0.743443
-0.186886 0.392353 -0.813663
-0.184566 1.57872 1.05291
0.913105 2.71548 1.61964
-2.98324 2.29455 1.54871
-0.484669 2.50734 3.04093
-0.981037 -2.6238 2.16444
-2.37342 -1.89824 -1.32555
1.32289 1.85577 0.398388
-1.28403 -0.598774 -1.20601
2.50806 -2.07399 0.0538902
-2.37295 1.85575 -3.08929
3.2155 -2.39849 2.02497
0.767788 1.95248 0.6731
-0.219036 -1.20176 -1.0997
-0.713642 -0.649471 -1.12789
-1.61655 2.40139 -0.216152
0.0616188 -2.64699 1.42114
-3.07553 -1.48487 -0.79044
-0.746006 2.84173 3.14632
2.84342 -1.50965 -2.99501
2.75785 -2.53712 3.39627
0.715466 -1.90635 -3.06957
-2.67878 -2.22639 2.41845
0.757053 3.07693 -2.31885
3.1647 -1.20945 0.567211
-0.586987 1.08062 -1.09874
-2.2332 2.99961 -0.210201
0.511898 -0.474308 2.30864
-0.40913 -0.546116 1.61484
1.13139 3.24341 3.10891
0.460308 2.01948 -3.49556
0.926273 1.70998 -0.866375
0.27737 -1.11009 -0.0890465
1.49405 0.214848 -1.07946
-1.00608 -2.56363 1.24662
1.43071 -3.46628 -0.208294
-1.84684 -1.04955 -1.27604
-3.07373 -0.279026 2.25338
1.54483 -2.30266 -1.82827
2.11821 0.291927 -2.65221
2.15818 -2.64403 3.37099
-2.77554 0.819996 1.54544
1.67095 -1.32108 3.43907
-2.94405 2.49183 -0.413433
2.8381 -0.0814705 0.558468
-1.43754 2.44798 0.62772
0.290142 1.34315 -3.48918
-0.992016 3.03184 -0.23267
1.18343 2.96183 1.0002
1.53494 0.971119 -1.77522
1.3704 -0.446209 -1.41553
-1.15152 -1.35537 -3.13107
-0.779797 -0.595379 -0.916615
2.3423 -2.45996 -2.49214
-0.166576 -0.868481 0.961926
3.46486 -2.09773 0.874371
3.51122 0.000263214 -1.84983
0.743015 3.29412 -2.88533
-2.32413 -0.233425 -3.45904
-0.563816 -3.11734 1.04761
2.02437 1.95313 -2.46595
2.42884 0.256176 -0.8176
-2.55513 2.10838 2.12255
-1.51173 -2.73877 -3.40476
2.98573 -3.46381 -1.26952
0.324566 -0.626667 0.168285
1.47846 -0.697338 3.17227
2.12866 0.278347 2.93086
2.20515 -2.51417 -1.36992
0.185413 -1.30277 -0.951725
0.723186 2.13713 -2.06594
3.44112 0.625973 1.19395
1.49633 -1.01254 -0.765018
1.6271 -0.0321312 0.499935
-3.17795 1.45986 0.0398445
-0.00594711 0.910053 2.94871
-0.369213 -1.83273 -1.28416
0.0261116 3.18126 2.52972
1.65992 2.24257 3.01927
-2.35916 0.380375 -1.35085
-1.42138 -2.96975 -3.28106
2.77629 0.75716 0.348629
-1.52427 0.662746 2.87162
1.97939 -0.376461 -1.22786
-1.5163 -2.81671 -3.30353
-2.10312 -1.45913 0.610241
0.616436 2.07046 1.78123
-0.921192 -1.3661 1.89515
-0.437458 1.66373 0.602184
1.74723 -0.211887 -2.55297
1.46988 0.964489 -1.519
-1.71702 3.07864 2.77369
-2.38093 1.78758 0.369091
-0.605068 -2.27222 2.99635
-0.904881 2.71089 -3.35589
3.24089 -1.34095 -1.8113
2.48659 -0.44035 -2.80819
0.846203 -3.35945 -0.638752
-2.61896 0.254894 -2.51056
-2.16822 2.82116 0.281277
-0.151684 0.501034 -1.28977
-0.445339 -1.56462 -2.27848
2.92747 0.253895 -3.02643
2.38829 0.876682 -2.29493
2.03611 3.27533 3.41967
-2.31072 -1.16508 -1.98862
-2.11518 -1.99154 2.10656
0.781597 3.49878 1.75084
1.27476 0.27763 -2.06162
-1.9795 1.1942 -3.30781
-0.265545 -3.50955 0.728756
1.4597 -0.657513 2.16786
1.43699 2.43268 -1.6456
2.67759 1.2928 2.76662
2.02991 0.145557 1.97461
-2.49424 -0.885677 -2.72601
3.14785 -0.192677 -0.713825
0.831341 1.22767 -0.750584
2.77344 -2.05808 -3.00849
3.00116 2.2204 1.72125
1.19439 -3.29463 1.21542
-0.17329 0.443546 -1.97763
2.18483 -1.63229 3.45877
1.41592 2.80841 2.21605
0.323177 1.41865 -1.70575
0.600887 -0.0869713 0.944111
3.4226 0.954319 -2.7841
0.136478 0.0348244 1.44729
0.663525 -1.66937 2.92475
-1.68258 -2.96328 1.60962
-3.00269 -3.49765 2.31871
-1.9766 0.700459 -1.3051
-2.05336 -2.54018 0.598148
3.16641 3.18019 -0.128971
-1.60669 0.528759 -2.24585
2.87296 -2.6836 0.670895
-2.97849 2.45282 -0.91032
1.47252 2.33989 2.66004
1.32992 -1.59098 -3.07668
-1.12781 2.60807 -2.50442
-2.34464 -1.61003 -1.99835
-0.114201 -1.609 2.23764
3.48767 -0.0500679 2.70118
-0.708652 0.900295 2.34584
0.0492134 1.53117 -0.192753
-1.81543 3.46002 0.659184
0.277973 2.26563 -0.955341
-0.597523 2.29086 -1.6828
0.329517 0.696033 0.261745
0.828815 -1.50958 -0.197529
2.366 0.898144 1.72797
1.5363 3.08904 3.12268
0.701946 -1.09251 -0.462917
-0.0195656 -0.672192 -3.09816
3.32322 1.62288 1.43673
-0.0849495 -1.39526 0.829403
2.96343 -0.206966 0.0276833
-2.25491 -3.46453 -1.74881
1.01056 -1.05833 2.48276
-2.72251 2.80672 -2.56235
2.00918 1.1 2.87133
1.59633 -0.601345 1.89302
-2.40212 -2.60058 -3.26684
-1.49656 2.10508 -0.4035
2.9439 -1.98183 -1.84797
1.23777 -2.19415 0.292301
-2.8019 0.724621 -3.4502
-1.01517 0.152515 3.16006
-1.06794 0.901325 -1.4338
-0.0947609 -0.623653 -1.69443
-1.29078 0.189373 2.40929
-2.9333 -0.336979 -1.72759
-1.66461 -2.27618 -0.324451
0.935612 -0.67458 -2.28672
2.62317 0.832584 -0.733013
-1.15187 0.240948 0.0765572
-1.59835 -2.05682 -3.26617
-1.97383 -1.855 1.42188
1.1279 1.66536 -1.74414
2.96901 -2.93811 1.16774
1.84276 -0.0291557 -1.71024
3.11889 3.2156 1.48832
-1.27291 3.28601 2.21585
-0.0240898 -1.91413 -1.99426
2.24662 3.0252 2.37386
-1.21236 1.58103 -0.452541
-0.474812 -2.10638 1.02617
-2.58847 -0.169201 3.17489
-1.32889 1.86069 1.30472
-2.69669 -0.54694 1.37033
-1.40321 -1.64528 -2.19436
-3.45043 3.2012 -3.04612
1.76915 2.25274 -2.29564
-2.76065 -1.5557 -1.20604
2.61693 1.42393 -2.24819
-1.37114 1.13501 -3.20269
-3.41232 2.92637 -2.30536
3.29811 -1.08397 0.529163
0.53548 -0.66872 -1.14568
-1.62973 2.53792 1.3111
-0.82037 2.84495 2.66954
0.669048 -2.09379 2.3352
1.37713 -2.5405 1.5206
3.17481 2.76418 3.50043
-1.60891 3.00725 1.38883
-1.80789 2.55684 -1.01169
-0.577709 -2.34984 -1.15267
2.95517 -2.75844 1.29889
-1.25785 -3.52768 -1.90536
-3.48229 0.543331 -3.43479
3.19097 2.44914 2.9457
1.99063 -0.906765 -3.21544
-0.556118 2.766 -2.22041
-0.591221 0.607601 -2.99176
-2.26974 0.246876 -3.05186
-0.277714 1.64168 3.04051
2.10515 3.36933 -3.37668
0.868511 -1.27573 -1.59959
1.96687 -0.856091 -1.59174
2.06762 1.42159 2.95531
0.945965 0.94302 1.86892
1.26606 0.598454 -3.1052
2.58118 -0.47826 3.19634
2.59314 2.50116 -0.263409
3.07681 -0.625599 -3.08388
2.04997 0.640194 2.09333
3.20882 3.3662 2.39531
-2.45812 2.93582 -2.41595
-1.04614 -0.26302 -0.268322
-1.62636 -1.83168 -2.38227
-2.29298 3.23965 3.09629
-2.39446 0.650082 -0.372608
-2.26547 -1.6194 2.68467
1.00666 -3.10556 2.65029
0.926495 2.49129 -2.04266
0.484295 2.50075 1.60125
-1.18774 1.01519 1.43192
-0.0681572 0.156658 0.832203
-2.87201 1.23407 -2.96635
-2.25056 -2.3476 -1.79432
-3.22162 -0.438427 -2.0902
0.941303 0.272312 1.5636
0.090435 2.41339 3.47974
-1.32663 -3.38762 3.3779
0.166248 0.622761 3.33365
-2.29985 -0.986279 1.76706
-3.40346 2.50174 -0.753292
0.432461 -2.22154 -3.13217
1.46983 1.24584 1.10563
2.67923 1.37754 2.29356
-1.9465 3.1307 -0.680401
3.15264 3.44461 2.59563
-3.50604 0.318569 1.47348
3.40739 -2.65834 1.08959
2.67369 -0.449436 -0.823185
0.905216 -3.35054 1.19426
-2.91542 -2.64666 0.160458
-3.04387 -2.51459 1.47445
1.59729 1.92159 -1.34706
1.35531 -0.67593 -3.03686
-3.39244 -1.53223 -3.44169
2.73873 -0.47501 3.00664
1.14486 0.142094 0.789677
-1.8329 -0.360226 1.66687
0.879452 -1.02018 -2.84992
-1.46183 -1.41384 -3.19674
1.70235 3.02691 -1.30787
-0.35873 3.11521 -0.818737
2.29793 -3.4642 -2.43268
2.7966 2.13681 -0.104893
2.35863 -0.0434151 2.89841
1.82974 -0.432133 -1.11213
-1.44793 -1.76075 2.03368
-3.3166 2.91964 -1.86208
-2.1628 -1.44879 1.12146
-2.35582 2.43438 3.24315
-0.128147 -2.09479 2.20272
3.05684 3.14309 2.78239
-2.91138 -0.282986 2.32191
0.987446 -1.52059 0.923183
0.350323 -2.25952 -3.18758
2.24191 -3.43642 -0.0841789
1.74006 1.39704 2.6906
2.88169 -2.58643 1.5429
0.467617 -2.89931 3.09783
-0.356579 -2.05839 2.46486
-0.689396 0.121326 3.37379
-1.97435 3.52871 2.98135
-3.18798 3.05001 -1.36898
2.27074 -2.92871 0.645962
2.08688 1.59426 1.39016
-0.532833 -2.12276 0.957462
-1.90958 -3.41639 -0.712849
2.63704 1.8592 0.236256
2.66751 1.67355 0.872478
1.06503 -1.39437 3.34962
0.903286 2.25277 -0.596401
-0.182713 -1.97216 -0.603222
2.98384 -0.942791 -0.620556
-0.43755 -0.595234 -0.545551
-2.11473 -2.39184 -3.01863
1.84645 -2.8405 -1.60586
-2.40194 -0.36961 -2.01853
1.36985 0.724529 -2.69486
-0.825016 -0.705784 1.98241
-1.54274 -1.5738 -2.94749
1.39639 3.02676 2.309
-3.27418 -0.137302 -3.19869
-0.359203 -2.85555 -0.605946
2.09896 3.13201 2.80254
2.61586 -0.841076 3.41442
-3.05735 0.0479088 -3.49343
-0.54034 -0.641178 -0.859318
-0.23148 0.49242 3.40075
-1.7846 -1.20507 -0.372387
-1.72837 1.50544 1.58934
-1.95491 3.49823 1.54876
-2.14988 0.827274 -2.6559
1.77971 1.08863 -1.97591
0.514904 -2.33792 -2.37944
-0.138027 3.29657 0.783207
0.904079 2.84509 -2.70442
-3.49077 3.32328 0.189938
-3.15738 -1.28441 -2.38499
0.00577164 2.01964 -0.0545311
-2.47223 -3.3005 -2.08462
2.08024 -1.02515 -2.65374
-3.11119 0.555477 1.70907
-1.55156 1.94114 -0.737835
0.0727196 -0.3465 0.459774
-2.67961 3.17212 0.688999
-2.38031 0.498562 -0.00144577
2.34517 -2.13289 -0.745518
2.96389 -2.61995 2.5056
-0.626171 -2.24179 0.457897
0.824741 1.29952 1.16112
1.17472 3.36282 -3.39956
-0.651737 1.90753 0.691448
1.61415 1.80006 -1.43476
-0.993427 -2.28704 2.75427
2.69929 0.789402 2.39086
-0.837688 1.11351 -0.646114
1.42051 2.26874 0.224712
0.390583 0.546558 2.1403
-1.68705 -0.0250816 3.43405
3.0096 2.88428 1.66622
2.61376 -0.358326 0.961689
-0.230328 -2.71914 -1.19813
1.33863 -0.367153 -1.93361
0.557362 -1.82035 -1.21692
-0.119129 0.721752 3.10801
2.23848 -0.646305 0.685993
-0.60416 2.05154 -1.11261
-1.99939 -0.595295 -3.10159
-2.63269 -2.74025 0.408863
2.03724 -1.42358 0.225796
-0.536602 -2.48133 3.403
2.8008 -3.4031 -2.38348
-3.20015 -0.629711 0.253086
-0.881542 -2.82662 1.96827
-1.30906 1.73446 -1.37733
2.38065 -1.9202 1.5119
-2.2675 3.32199 -0.50391
-2.36537 -0.817699 3.43633
2.04721 0.186626 -3.37127
-1.26252 1.55765 -1.25931
-1.92687 0.0593605 -0.736919
-1.30663 -3.01278 -0.604488
3.48199 2.79174 1.76952
1.91472 2.59531 2.47844
-2.52996 -1.82177 0.14555
2.51748 -0.12711 1.22907
-0.521969 -1.81381 2.01553
-1.15299 -0.545773 -2.86952
-0.98872 1.62439 1.85264
1.2875 -0.395741 -0.12524
-3.51677 1.87727 2.93784
-1.11753 2.95412 2.92878
-2.88355 -0.888042 2.18499
2.59861 -1.4734 0.712955
0.208622 3.44504 2.42672
-2.62966 -2.62045 -1.76773
2.92141 -3.17032 -0.0460091
-3.01546 -0.688572 3.41194
1.8409 1.69397 0.968983
-2.35169 -2.83028 -2.96229
-2.94938 1.46094 1.9187
-2.55613 1.47971 1.33728
2.63258 -3.17336 3.45296
0.810001 -2.52137 -1.55597
-0.298809 3.08095 -1.17828
1.93718 -0.777775 -0.263195
-1.64437 1.1281 -0.429798
-1.76796 -0.0178413 2.41716
2.73655 0.502232 0.575603
2.77798 -1.72422 0.749043
1.16114 -0.540371 -1.32555
-0.0371056 1.04578 3.15788
-0.651493 2.02518 3.52005
1.79625 0.590412 -3.06867
-2.91756 -2.13512 -3.05507
-0.177036 1.56979 -0.297306
-3.14237 -0.0285683 -2.70474
2.81033 1.33078 1.81295
0.318584 -2.97271 -1.75216
-2.99972 2.76756 1.05915
0.210262 2.47819 -3.01675
-0.699207 0.103802 1.03275
0.285313 3.07042 -0.477604
0.220364 -0.116611 -2.95454
0.700832 -1.85589 -1.55413
-2.13201 -1.23792 -3.51987
-1.30121 1.58876 -0.54472
3.51546 1.98193 -1.74947
-0.772236 1.72491 -1.18665
3.29064 -2.02385 -2.48644
-3.26165 -1.48804 3.52729
2.30664 1.72594 0.56374
-2.23832 -1.5088 0.0986214
-1.65732 2.31205 3.51754
0.792271 -1.53494 -2.4057
0.807934 -3.36964 -0.639896
-2.27232 -2.49793 -1.58667
-0.486256 -0.795422 3.39898
1.33081 -0.347309 1.58836
1.84809 2.41599 3.10004
2.30803 1.63928 -1.45535
-0.663761 1.91317 -3.26494
2.97039 0.152454 -1.23821
3.42059 1.91786 -2.99351
-3.05246 3.26426 0.00708389
0.843182 0.520992 -0.358837
2.26023 -1.73842 0.146954
2.12368 -1.00702 2.88707
1.17651 2.04226 -0.995777
0.209202 -0.694279 -2.64714
2.28939 -2.91353 2.52768
3.02816 2.93003 1.37349
-1.74558 -1.26926 -2.5414
-0.735371 -1.36621 2.91199
2.80725 -2.01297 -3.43036
-1.61894 -1.5299 0.0943565
1.53173 2.31701 1.89147
0.351452 1.04171 -2.65109
-3.17986 0.629856 2.39489
-2.82328 -2.26098 -2.36674
-3.36295 0.951939 -0.74474
1.01426 0.173977 -1.35024
2.0084 -0.333393 1.38422
1.85304 1.45656 3.02172
1.4264 -2.81434 -2.52678
-2.01477 2.99662 -1.05296
-3.19065 -2.68966 -1.27149
-2.30621 2.37761 2.77394
-2.97867 0.193523 -0.131741
-1.80988 0.0173836 0.610996
0.980915 0.197826 -0.972599
-3.43667 -0.161404 2.73691
1.48308 -2.68267 -1.66383
0.969273 3.32944 2.79645
1.44621 1.11513 -2.55342
3.39697 -0.993999 3.44692
-1.94187 -0.00505447 -2.31009
-1.70346 -0.19199 -3.46802
1.16851 2.03733 -0.270779
-0.756023 2.06238 2.75032
1.2751 -3.28303 0.412617
-0.0553398 2.23342 -3.28432
1.81636 2.33228 -1.96328
1.07728 -0.251987 -2.70118
1.52758 -3.35006 1.41767
1.90715 1.63168 3.42739
3.13259 0.9613 -0.113201
2.66829 -3.5161 -3.37254
-0.138027 -1.68403 2.20033
-0.923237 3.02002 0.195362
2.4931 -1.80336 0.447865
3.2125 2.47546 -1.38607
-2.81813 -1.11541 -2.58932
-2.51559 -3.3664 0.162411
2.43761 1.7146 0.347881
2.32946 -0.825169 -2.08779
-1.85109 -2.45356 3.40905
-1.68809 -2.8565 3.42848
3.51596 -3.25557 -1.79109
0.175785 -0.389874 -2.83842
-1.91188 2.22242 -0.638058
0.237583 1.64817 -1.69813
1.65198 1.32514 1.19017
-1.72114 2.04255 1.35931
2.63046 2.53067 -0.993435
-2.99286 1.43275 2.71693
-3.11935 0.226681 -3.27216
-3.22641 1.37931 -2.12494
-2.01377 -2.84431 -2.37679
-0.848476 -2.86389 0.768871
2.049 1.31562 -0.544239
-3.18467 2.40745 -2.96341
1.54104 -1.42231 1.89726
-0.166996 -3.30587 -0.127544
1.84329 -1.02329 -1.1324
1.02468 -2.46018 3.30407
1.75624 -1.91751 -0.00478745
2.63502 -0.501324 -1.16101
-3.2773 -0.72401 -1.0016
1.0271 1.26593 -0.861767
3.48658 -3.11808 -3.08168
-2.01236 2.46646 2.32949
2.88861 2.28551 -1.62836
-0.306278 1.29102 -1.93051
1.56504 -2.94333 0.581738
2.33357 1.90368 1.65709
-1.73857 0.392834 -3.32776
0.104145 -1.91827 -0.825367
2.63808 -3.3506 1.98616
-1.29103 -3.09237 -0.815258
-0.837185 0.938457 -0.3978
-1.57505 0.357693 -1.99869
0.332127 1.88086 -2.24871
1.93715 1.70213 2.04602
-0.548458 -2.6715 2.63823
-2.95871 2.42907 0.474567
-2.75094 1.22711 -2.66813
-0.0407753 -3.04699 -1.58268
-1.12197 0.592686 -1.39775
1.59831 0.163418 -0.954578
-1.86684 2.40792 2.9876
-0.329998 -2.49662 0.809757
0.956821 -0.536129 -1.37673
-1.0645 3.33153 -3.21013
-1.9618 2.20134 -2.3461
3.0483 -1.88266 -2.98437
3.38388 -1.30584 1.77827
-1.26615 0.478756 1.735
0.871639 3.4417 -0.739666
-3.15029 -1.2158 2.42747
3.37284 -2.68484 1.29985
0.115253 -1.54796 1.80696
3.27406 1.12576 -1.26471
3.06765 -0.984768 -2.00052
-2.3458 1.48626 -3.33472
-1.79464 3.52818 -1.68184
2.98735 2.50913 1.01604
1.655 1.82566 -2.04074
-2.6202 -2.97602 -2.66639
3.34281 2.43116 0.121532
0.575314 2.28459 0.440411
-1.15326 1.59008 2.42798
0.585751 -0.830196 0.0182076
3.12076 -1.62349 2.03716
2.78976 -2.09137 0.987888
-1.95943 -1.43345 0.980534
2.59214 -0.224369 -0.0458717
-3.51594 -0.304363 -1.75574
-2.64679 -2.18489 -0.196224
0.478458 -1.80137 -1.83242
-2.61666 -2.52591 -3.08336
2.81504 1.58493 1.51044
-0.234104 3.43539 -2.85529
-1.73248 1.48561 -0.943241
2.79094 0.539021 0.969105
-0.295872 -0.738567 2.53937
3.19379 0.837536 -0.220531
-1.6293 -0.105854 3.01064
1.1782 -0.618076 -3.2416
2.3495 1.27066 -1.50744
2.80167 -1.78641 -0.497822
0.776577 -0.399357 -2.98024
1.92501 -1.11985 -3.08038
-3.08558 2.18158 1.40895
1.41906 -2.08644 -2.11938
0.891079 -3.36284 1.67759
-2.86499 0.87682 -1.02041
3.14937 0.535076 2.87745
3.4433 1.9095 -1.27616
-1.59967 -0.447842 2.99823
0.906223 -1.63388 -1.85553
1.46152 -2.89956 1.28064
1.38486 1.88074 -3.37474
0.258274 -0.2616 2.81055
1.67443 0.188351 -2.81142
-0.183521 -1.45994 -2.63873
3.3316 2.96667 1.77362
2.1417 3.1054 -0.758648
-2.66999 2.71924 -2.9165
-2.20729 2.62701 0.639378
-0.527294 -3.04001 2.54103
-3.314 1.40174 -3.42587
-3.15321 -1.20408 1.45859
2.66106 -3.35476 -2.33854
3.38517 -0.092762 0.853527
-2.3209 -0.953869 2.92912
2.45644 1.86633 1.82844
-2.36956 1.13058 1.39831
-0.750523 -0.263248 0.0502052
3.42439 1.6023 -0.858318
1.89808 2.39872 -0.894611
1.47593 -1.6641 3.51085
-0.601017 -1.44257 -1.76058
0.0641594 -1.59206 -0.5798
-1.61785 -1.46653 2.86297
-2.22426 -2.14871 -2.15825
-2.93135 -1.46589 -2.82745
1.47068 -1.54499 1.83867
-1.01465 -0.910824 -0.960117
1.13075 1.34237 -2.89335
-2.2994 1.23123 3.0409
-2.85589 0.0619545 -2.69055
-0.0809364 -1.99765 -1.1294
2.34298 1.40505 0.282261
1.67042 -2.06633 2.35126
3.5159 -0.14864 -2.8648
-2.84709 2.16263 -0.795155
2.52711 2.235 0.663578
-1.96854 0.170139 -2.78278
-1.85817 2.15921 2.09513
-2.88462 0.754421 0.259007
-2.57145 1.45874 3.32468
-0.16531 2.13839 -2.20851
-2.41858 -2.0099 2.73207
2.9364 -3.20245 -2.4016
3.07532 2.47169 0.985294
-0.255367 2.45205 -0.919422
3.41193 3.1405 -2.21996
-3.4382 2.13208 1.9539
2.66065 -2.90381 0.577572
-1.14769 -1.75827 -2.20354
-1.35855 -0.107349 2.79074
-0.0315208 0.856739 1.86177
-0.366795 -2.37592 3.38741
0.767139 -1.25897 -2.88239
-2.31491 -2.38992 3.12484
1.3012 -1.85013 2.04136
2.08496 1.43003 1.11451
0.503323 0.774616 -0.820766
-1.98645 1.87195 -0.189045
-0.654461 0.465252 2.58822
-0.931072 2.85309 -1.58648
-3.13665 -2.04099 2.8058
3.25448 0.93121 3.4336
-3.16344 -3.50293 -1.3609
3.49693 0.267925 0.78471
1.47094 2.48854 2.47011
-0.950092 0.254208 -0.167202
2.76468 -1.19637 -3.45993
-1.49172 3.31067 1.94755
-2.97084 -2.21132 -1.65454
-1.02179 0.137943 -2.33699
-1.28334 2.21059 -0.842442
-1.38527 2.60948 -2.44677
1.25754 3.32843 -2.94598
-1.49328 3.1687 1.85748
-3.09052 -3.47278 0.81049
-0.254002 1.53369 -2.47084
-0.178402 -2.48375 -0.663486
-1.2982 3.28464 -0.888348
0.58279 -1.74261 0.435871
2.24952 -0.177921 -2.49353
-2.12845 1.80401 3.25259
-1.5715 3.52439 2.79472
0.018055 -0.396412 2.0558
-1.66 -3.20622 1.68897
2.68602 -1.69578 1.75172
3.21891 -1.25077 0.21806
-1.51193 1.49895 1.26984
2.13526 -2.7468 1.01895
-1.49622 -1.04128 2.28006
-0.45422 -2.99402 -1.96521
-0.268978 2.25922 -2.69674
-1.00979 -3.40477 -2.70787
-2.48953 -0.972546 -0.100567
2.73497 2.04923 0.228748
1.41935 -3.14631 2.0685
-1.89813 2.54344 -3.24961
2.90725 1.695 1.78487
-0.141155 -3.35247 3.04179
-1.39663 1.78651 -1.53502
1.17369 -2.24524 -1.52533
1.48067 0.304256 -2.80164
2.30833 3.039 -2.20269
-0.859585 -1.50633 0.360302
2.9047 -0.992138 -1.126
1.90585 -1.32451 -1.26859
2.19177 -3.4407 -2.7925
0.90929 -2.33511 2.43803
0.415546 -3.49521 2.08928
1.88424 -0.100834 1.34026
-2.17662 2.03807 2.09874
-1.44272 -0.855595 -1.66436
-0.109875 -2.91046 -1.16089
3.25415 3.40159 0.336498
-1.93921 -0.993526 3.34808
-0.204075 -2.15618 -1.51197
0.53896 3.28521 -1.94895
-0.558544 2.40963 -0.748524
-1.0048 -0.216618 -1.24002
3.33918 3.20265 2.19468
1.90239 1.55136 0.165401
-3.2975 2.91027 -3.22573
-0.922863 -1.5998 -3.13247
3.41735 1.29405 -3.26641
3.2299 1.48085 -0.7244
-2.34941 3.07718 1.65496
-0.762829 0.337566 1.40463
1.49237 -2.65901 0.278721
-3.28318 0.786167 3.06582
1.91522 2.78509 2.20112
-1.45491 2.58874 1.21695
-1.67692 0.423779 0.0598717
-0.273853 0.661808 1.99561
-0.00472641 -3.3284 0.222309
3.27459 -3.44658 -1.83238
1.39402 2.78704 -2.29074
-1.2687 -3.09791 1.05055
3.01374 -0.857021 2.92707
2.54403 -2.90019 -0.354107
2.20961 -3.17965 -1.63636
-0.640789 1.73928 -2.58316
2.95462 -3.25116 1.37616
1.88288 -0.924366 -2.02938
-1.43035 2.33731 -2.35407
0.272808 -1.73476 -2.26512
0.98579 -1.9957 3.52564
-0.499195 2.93385 -3.10781
-1.63947 -1.4022 -0.429295
1.01014 -1.924 -0.325764
2.90931 -3.44732 -0.501698
3.32988 1.76601 -2.29795
0.638683 -2.41031 -1.54539
2.14483 -2.52304 1.06578
-2.74477 2.89537 -0.132442
-2.00617 -2.60233 1.66833
-1.01606 0.674198 -3.39472
-1.12015 -1.87555 3.07467
2.45427 0.628979 -1.86307
-1.40702 2.52504 -0.783352
2.095 -0.532162 0.304859
3.33258 -1.15838 -1.46466
-1.74834 -1.36404 0.660557
2.32116 2.81018 1.14123
-1.34682 1.88766 0.501064
-2.74584 2.67842 0.902454
-2.60502 -3.39509 -1.95888
3.47336 -1.40744 -0.298893
-1.45706 2.00795 -2.73726
1.29512 0.926685 3.32331
-1.93555 2.52338 -0.276196
1.13532 1.08284 2.10096
-2.27147 1.34808 -2.33043
1.87348 2.60346 -3.05579
-1.16099 2.38908 2.3674
2.74518 -3.02509 0.978481
-2.74923 -2.23539 1.58711
-0.0444069 -1.8367 -3.35586
0.753864 -1.43068 1.6558
1.00983 0.647793 -1.48486
-2.8019 -2.12443 -1.49701
2.83459 0.475552 2.58955
-3.03138 -2.45648 0.402096
-2.08345 -1.72423 0.47002
3.28768 -3.38629 -0.676434
1.19881 -1.54356 -0.165989
-0.749615 -2.33391 1.60234
-1.10176 -2.07943 2.76936
-1.98149 1.4117 -2.72867
-0.462627 -0.369968 0.92284
1.57589 -3.42749 3.33394
1.09809 -2.69385 0.27396
-2.03534 3.14446 0.821201
1.4384 -2.95427 2.6325
-3.30539 -2.03399 2.24994
0.532345 -2.28185 -3.36097
-1.93267 2.4525 -2.15935
-3.23066 -2.36447 -1.23506
-1.42379 0.537495 -3.35889
3.03458 1.55973 -0.72514
2.83299 -2.43843 -0.617092
-0.9604 3.14118 -0.307224
2.86452 0.703739 -0.230114
1.42968 1.67212 0.351154
0.144077 0.0431633 1.8527
-0.213177 0.273312 2.57457
1.16301 -3.26169 1.95971
3.46348 -1.65882 2.59896
-2.96276 -0.353947 -0.399075
-0.152363 1.22598 -2.37488
3.23426 0.725025 -0.277782
-1.14031 0.490665 -1.20395
2.16511 2.53399 3.03532
-1.55108 2.33116 0.640087
3.30533 0.2253 -2.85228
3.34436 -2.69797 1.95656
1.23673 0.624386 2.2304
0.300159 -1.27996 -2.49577
-2.63445 -1.88382 0.154003
-2.00561 -1.31105 -2.15555
0.720325 2.54031 1.57319
3.05191 1.70723 -2.00349
2.01988 -2.96862 -2.53685
0.124432 3.20021 3.32984
0.807682 -1.8864 -0.512211
-1.3031 -1.64842 0.325352
-2.14005 -1.83959 -2.11761
-1.10028 2.40086 0.137966
2.05744 -0.834515 1.78968
3.43742 -0.465244 -2.58872
0.943264 1.53286 2.95531
3.47531 -1.28234 1.127
-2.59708 -1.29779 1.16211
-3.33459 -2.81344 0.826786
-0.311268 0.314709 2.9441
-2.52145 -1.41314 -2.23985
-1.63534 0.819286 -1.07572
2.03816 1.68296 -2.21039
-0.239513 -3.48468 -0.0411873
0.707302 2.1083 -3.04197
-0.404736 2.01018 2.02643
-2.81327 0.417912 -3.32326
2.88437 -0.174129 -1.08551
-0.35619 0.764324 0.104763
-0.94762 0.433453 -3.11606
-0.18375 -3.41335 -1.52549
2.27607 -2.93108 3.29752
3.06939 -1.03089 1.44494
0.492672 -2.52826 2.4958
0.98624 1.23594 1.06856
-1.05468 -2.1241 0.0113945
-0.842403 2.00669 3.43303
2.0758 2.19715 -0.276638
-1.88678 1.54599 3.49141
-1.46731 -1.87755 0.389324
1.54274 0.178547 -0.0203056
0.772907 -2.54074 1.58415
-1.31768 2.73905 -2.98227
-2.35742 3.27291 -1.50682
2.71486 0.230045 3.26466
-1.34109 -2.85106 -2.92679
-1.4436 -0.370205 2.61544
1.28348 1.79111 2.27705
1.23935 0.331379 -0.244312
-2.43867 1.44831 0.881855
1.07656 -2.55453 -1.47513
-0.874828 1.99192 -1.01215
0.146618 -0.770702 -1.80864
1.64352 0.915333 -2.07126
0.840832 2.56163 1.1625
1.44957 1.74096 1.84697
0.997662 3.40359 -2.05877
-0.260822 -1.57554 -2.80319
2.49858 2.71166 0.53191
0.844906 0.415478 -1.08712
2.37349 0.980526 -0.637936
-2.17419 -1.47845 -2.18155
-0.447292 1.65044 0.0514717
1.48516 -2.27029 -3.10054
-0.887867 2.90876 2.99662
-1.57643 0.214062 0.670238
-0.099659 -2.40371 0.538296
0.100872 2.12948 1.96647
-2.43457 -2.19869 1.1426
0.0138435 -2.23564 -2.50927
2.91144 1.61299 2.00679
-3.33745 0.450947 -2.0072
-0.282261 1.81229 2.64696
0.152729 -2.70235 -3.15886
0.0820045 2.31835 3.28543
-2.78329 -1.10505 -0.567852
1.75872 0.854053 0.563969
0.189663 -3.31295 0.157917
-1.73509 0.791637 1.49476
-0.708828 1.36079 2.26284
-1.23758 -2.1609 -0.191517
-0.241055 -3.31681 3.26315
-1.12963 3.42053 1.00809
-1.28477 -0.929081 2.84127
-1.53487 2.75918 1.09227
1.43281 -1.22616 3.52275
-2.07057 0.526081 0.30946
1.62288 -1.25073 1.53204
0.0502968 1.94265 -1.74367
-1.75421 -3.32797 3.15265
2.05799 0.498737 -3.0756
1.78561 2.7967 -2.85687
-0.273647 -1.51171 -3.50369
-0.967907 0.894199 -0.897236
-3.41117 3.14496 -2.2054
-2.95576 -2.45726 1.10397
0.889233 1.97927 -2.4373
-1.64608 3.44424 -0.152493
0.145786 1.99977 -2.27719
-0.237095 -2.01728 -1.06962
0.222843 -0.767765 2.43283
0.369694 -2.2453 1.16218
-0.130276 -3.52704 3.18601
2.50802 -0.265156 0.0128593
-2.23291 2.30247 -0.909527
1.87477 1.89502 0.168751
2.97301 1.94298 -1.91932
-1.24683 0.29668 -2.54243
0.0115166 2.18614 2.99288
1.94561 -0.735424 -3.09175
0.842915 2.0312 0.676022
-1.53044 -0.813305 1.96625
-2.41178 3.09192 1.97474
1.13662 0.426113 -2.35776
-3.30844 -1.13321 3.48024
-0.135975 0.169407 2.30792
0.948421 -2.02317 0.715366
2.94152 -2.58569 -3.0553
1.86705 -0.296986 3.13456
3.31084 -3.35282 -1.1364
-0.0804863 2.12833 -2.64074
-2.18158 0.435711 0.0814934
-3.27419 1.90899 0.106068
-2.09642 -3.03832 -3.53517
-1.15171 1.10202 -1.13285
-2.91114 2.32911 3.04028
0.807949 -1.87422 -2.51842
2.28818 -3.46133 -0.568577
1.8872 2.48391 2.13816
-2.78473 0.815434 1.78906
-2.42175 0.0589256 1.38186
1.66346 3.51397 -2.24978
-1.766 -1.20314 2.66293
-1.76564 -0.941799 3.16014
0.637051 0.497318 1.19481
0.141796 2.34933 -0.0116158
1.62709 2.44191 1.11789
-3.00883 0.714329 0.660275
2.66486 -0.533024 -0.391346
1.91838 -2.18135 -2.11145
-0.767109 -1.96237 0.951199
-0.0131721 -1.3804 1.92964
-0.885777 -3.25247 -3.34085
-0.79298 -1.48294 -1.27893
-3.1337 -0.244854 2.75392
-0.141598 -2.67515 2.0359
-2.55925 0.470364 0.94228
2.10475 -1.43808 -1.87893
-1.82213 -0.911373 0.59177
-0.929859 -1.31386 1.94595
-2.51419 -3.46283 2.9873
2.41916 -1.22622 -0.928631
2.61384 2.29615 -1.17738
-2.20063 -2.12516 1.87522
-3.51406 0.0855751 -2.43699
2.05738 0.487408 -1.5766
-0.0676918 -3.18972 2.89748
1.0571 -1.74525 -2.07613
-0.886662 -3.17604 1.01622
-3.00806 -1.46264 3.23789
-2.55629 1.61123 2.77878
-0.481205 2.63256 -1.98297
1.87695 0.984379 3.3169
-0.315182 0.0626869 -2.87561
1.78337 0.86578 1.74549
3.21048 0.887257 -1.30263
2.57243 -0.122715 -0.488636
-2.57105 2.81331 1.30165
1.9807 0.334881 1.66114
1.15124 2.98375 3.20223
-0.137325 -2.55984 0.746105
0.883427 -2.11242 -0.688679
0.664791 0.941914 -3.23983
1.32471 -0.716671 -0.173428
-0.465328 2.97187 -2.84318
2.76757 1.2197 2.04779
-1.2566 0.362835 -2.14227
3.04877 -0.132084 -2.86449
0.642567 0.832401 1.00592
0.309261 -1.25425 1.45414
-1.48017 3.43253 2.42984
1.36669 -0.24033 3.32114
2.13057 -2.89244 0.72752
-1.57839 0.776073 3.01457
0.113964 -1.43475 2.4509
-1.90559 2.10364 -0.396748
-0.512325 0.803867 -2.56945
0.158718 3.08281 0.834003
-2.37089 2.06423 -2.40094
2.08697 -0.828739 -0.119656
0.449459 2.48424 -0.754475
0.235065 -3.06327 2.00891
-2.57295 2.30713 2.1202
-2.09391 0.902172 -0.639263
3.36071 2.85932 1.46152
0.428425 -1.09407 -0.502186
0.862698 0.535877 -3.23385
-2.37065 -3.51198 2.85267
-1.23606 -0.349545 1.38137
2.17982 1.28328 -2.98291
-2.11019 -0.165279 -3.0342
2.90245 -2.25135 -3.09375
1.48711 1.51925 2.74891
-2.68769 2.95002 0.115551
1.77755 -3.21125 0.439335
-1.26017 -3.38607 2.34899
-0.958485 0.577885 0.349331
-0.641346 -2.62677 -0.158932
-2.79551 -1.46188 3.49524
-1.7747 0.837597 1.24299
-1.80518 -1.04993 -2.45782
-1.3634 -0.156399 -1.70546
-1.15002 -0.789486 -2.72174
2.50106 -2.83791 3.23199
-1.12695 -2.52188 -3.51479
-1.3135 -3.27986 3.17392
2.03955 -1.5363 1.21627
-1.65491 1.04074 1.59323
-1.6952 3.40312 -2.40419
2.55151 -2.45974 1.43713
-2.44184 -0.69891 -2.14833
-1.14358 0.49963 1.2308
-0.861607 2.67176 -2.62603
-1.16515 -2.5456 -2.46022
-1.14441 -3.11189 -0.446568
-0.506016 -1.23512 -0.190891
-3.35709 0.986919 1.27652
1.23986 -1.04087 -1.21827
2.3712 1.30793 -0.882496
1.2728 3.14827 0.193295
2.12819 2.63243 2.4981
-0.708363 3.1943 -0.5378
0.201138 -1.48481 -1.93338
2.27645 2.18911 -0.475269
-2.23747 -2.51157 -0.0516243
0.575359 0.347744 2.24879
-1.68365 2.84545 0.168362
0.101803 2.49208 2.66302
2.75484 0.1964 0.435421
-0.587399 -0.499744 0.516338
-2.15664 -2.76248 -0.386768
0.841091 2.90124 -1.25982
2.91143 -1.87447 0.790905
-1.09938 2.8622 -0.555515
1.85272 1.0713 1.46845
0.565975 2.36937 -2.25116
-3.33301 -1.12262 -2.94124
3.33373 0.729259 2.55455
-0.298199 -2.70447 -1.31639
-3.31739 -2.48516 1.71939
-0.700443 -0.0688438 2.49245
1.57528 2.31005 1.32634
-0.701168 -0.91621 -3.08366
2.27885 -2.07213 2.78226
-0.320049 0.364025 -0.213787
0.964329 -1.31879 -1.91177
1.02681 3.2509 0.501141
-0.485989 3.45343 -2.30513
2.73315 3.25162 -2.00589
0.917011 -0.113926 -1.48733
0.342113 0.104214 2.44754
-2.39889 3.40749 1.22206
-2.47883 0.915417 3.30957
3.30715 -3.32129 -1.2981
-0.442173 2.96128 2.06964
1.18159 -0.894299 -1.78468
-2.38462 -2.99732 -2.06931
-1.15422 1.03321 -2.68323
0.843616 -1.98832 -2.49896
2.89182 -3.32251 0.922649
1.80383 1.13003 -3.04049
-1.04146 -2.5952 3.37072
-0.267429 -0.990376 1.21879
1.43819 0.0663261 0.901226
-0.0276985 0.83794 0.326977
1.19134 3.39949 3.4364
2.12575 1.51373 -3.09645
3.44624 2.66465 0.940472
-2.58825 -1.55692 1.95588
1.33812 2.82223 2.1689
1.83316 2.17852 0.231579
2.13654 1.44681 0.640095
-0.180202 -3.13018 3.18525
-2.81451 -0.393894 0.716045
2.048 -3.02305 -2.51336
1.94886 0.952969 -2.64941
1.85613 -1.39122 1.86804
-1.27075 -2.33282 1.99715
-2.38222 -2.42212 -3.0953
3.32221 -1.47483 3.26246
-0.513561 2.867 1.90545
-2.94081 0.632816 -0.715092
-3.2911 -0.766178 0.158443
0.428669 2.58915 2.76827
0.919025 -3.29271 -2.79032
2.27333 2.29083 1.16637
0.605839 0.172344 3.31068
-0.932545 -2.03888 -3.08949
-1.02413 -0.305904 -1.97607
-1.2972 0.847408 -0.447186
-2.4591 1.10227 -1.11572
0.36134 -3.47864 -3.01844
3.5235 -2.88392 -0.249081
-3.31483 -2.1713 -0.727276
-3.10143 1.26109 -0.484447
1.60048 -0.355419 -2.26097
0.843807 -1.61762 0.915096
2.28985 1.99194 1.87994
-3.22175 -2.00795 -1.9615
0.866596 0.503452 3.42144
2.7546 3.20997 0.988178
3.27169 -2.78466 1.04507
-0.044735 0.580395 2.16487
2.76352 1.56836 3.5291
-1.78827 1.25725 1.25466
-1.04552 1.15954 -3.16811
3.40511 -0.775517 -1.78201
1.74952 3.07201 -2.3256
3.32355 1.82633 -0.798023
2.67765 2.6083 2.70915
-0.401524 -0.592457 2.38359
-1.89199 -1.37339 3.13446
-3.26265 -1.16905 0.647503
3.27017 2.32175 -1.31967
0.989292 1.01793 2.9413
1.8249 2.23337 0.565311
-3.49264 -2.34768 2.79351
-2.28271 -2.47811 2.32999
-0.0770149 2.27513 1.08897
0.0965996 1.53133 0.161732
-1.05535 1.67344 3.10481
-0.988239 -2.26361 -2.33593
3.1948 -1.15188 -0.501263
-2.19222 -1.41082 -1.71505
-2.78645 -1.67618 2.3066
0.782581 3.31683 0.472622
0.0405617 1.6062 1.66047
-1.6968 1.64909 2.18608
2.92771 3.3701 0.925678
-0.977909 -0.242451 -0.61034
-1.94045 2.85787 -2.47243
0.259151 -1.26483 -1.73233
3.29342 1.28247 1.65133
-1.48897 0.94173 3.24423
-3.24972 2.28505 -0.967487
1.75843 2.50232 -1.71801
-0.648441 -0.782452 2.89191
-0.99789 2.26183 0.473652
2.93151 -2.9705 0.308216
-1.74618 -2.57833 -3.00158
-1.21489 -0.552517 3.39182
1.58831 2.04257 -1.40854
-0.827709 -1.23381 2.87764
-1.11901 -2.00774 0.28384
0.917217 -0.492992 -1.49846
2.20293 0.79282 -3.0635
1.55931 -1.51609 -0.842228
-0.502575 1.371 -2.11593
3.34118 3.37683 -0.5509
3.34331 3.24099 -0.125507
-3.40329 -2.04073 2.85751
-1.80811 0.748096 0.832729
-1.466 -1.19912 3.13445
1.82156 0.976887 -1.94064
-2.74425 3.39341 1.1019
-2.80403 1.24327 -2.17263
0.889278 -0.0893288 -0.685001
2.30888 -1.06556 -2.38135
-2.30937 1.9674 -3.07187
0.568844 1.24123 -3.36642
0.359005 1.51719 -1.40343
-2.3438 1.64944 2.8802
-2.2767 3.37687 -2.38627
-0.681805 -2.15648 2.12615
3.42382 -2.87046 1.45221
-1.81616 -2.61099 -0.840054
1.03437 -1.87948 -3.46492
1.65674 2.54533 -1.52675
3.1204 1.78686 3.44437
2.7577 3.01303 1.15007
-2.18126 0.514523 -1.40009
-3.36841 -2.66201 -3.28618
-2.75097 -1.47027 -2.97667
2.91072 -0.743252 -1.59761
1.82739 1.57866 -0.932537
-3.08001 1.93513 -0.539806
-3.0094 -3.41656 2.11625
-1.53243 0.621532 1.12604
-1.62359 -0.257259 -1.15445
3.53019 -1.2042 -1.20877
-1.40543 -1.98204 2.84129
-0.156078 -0.15958 3.183
-0.129025 0.00754166 -2.35462
1.8089 1.79211 1.43766
-2.19099 0.635479 -0.519207
0.804737 -1.60448 -2.11961
-0.614552 -0.14896 -2.53245
-2.55586 -0.154636 2.62461
-0.17477 2.84847 -1.69999
1.62018 -2.84247 0.631336
0.925938 -2.84781 1.65302
0.573406 -0.249523 -2.0421
2.75432 2.59812 2.50098
0.124638 -1.06644 0.225742
3.14096 -2.79308 -3.20613
-2.04599 -1.44854 -0.275074
-1.04291 3.35992 3.1115
-2.48565 -0.790165 -1.11049
-1.18192 -0.342304 -1.79755
2.45314 3.48664 -0.104488
1.57062 1.57129 0.0514183
3.06406 -0.570118 3.33743
1.49769 -3.53225 2.40001
-2.34391 2.2258 -2.20196
-1.01451 -1.1851 -0.459507
1.71414 -1.11148 1.09568
1.2901 0.378056 0.920063
-3.35592 2.87068 -2.93745
-1.14975 -2.68232 0.255779
2.2813 -0.328701 -0.324924
-1.20282 -0.411098 -1.28917
-0.932735 -2.37601 1.67625
-2.06826 -3.3793 1.14772
0.265316 2.12211 0.837986
2.80953 3.31373 2.6566
0.369671 -1.76812 -1.99041
-1.77761 3.48155 1.92318
-1.17953 0.704304 1.72651
2.07997 1.88392 2.57972
-0.780491 -3.33317 -1.81633
1.46588 1.95185 1.30811
-0.92522 -3.31832 1.93582
-3.31303 -0.715519 3.09205
0.528675 1.75176 1.67863
0.649746 -1.51846 0.925014
2.19487 -2.24446 -3.37864
1.05069 1.12893 -3.43263
-1.29015 2.88684 1.80721
-2.24596 -2.36003 -0.376217
-0.526752 -2.8156 -0.173855
