ply
format ascii 1.0 
element vertex 1835
property float32 x
property float32 y
property float32 z
end_header
0.791241 -1.83234 1.88671
-1.47033 -3.11114 2.33103
-2.54855 2.23155 -1.45147
-2.48706 0.960331 0.0920525
-0.138218 2.69699 2.2379
1.05027 -0.932903 -2.40071
2.44265 -1.50232 -2.95429
-3.2019 1.64856 2.55567
-2.27157 1.74046 3.11637
2.73783 -2.2652 3.32551
1.089 -1.69573 -2.57418
0.35268 2.63105 -1.14978
2.43674 -2.37482 -2.98558
-1.53856 -1.91965 1.51028
-2.83619 -1.403 0.139919
-1.23319 1.99432 3.21074
-1.18376 -0.49094 -1.82711
-2.16362 -1.11563 3.35698
-3.1146 -0.782001 1.03009
-2.32463 -0.0498543 2.7686
-1.36327 -0.847561 -2.46266
0.490665 -2.82591 3.17211
0.508801 1.06231 -3.27006
-1.04827 -0.0364876 -0.654179
2.62719 1.96049 1.47836
1.77057 3.12802 0.405331
3.47899 -2.17252 2.91811
-3.30245 0.179256 -1.73306
1.26317 1.01935 0.488659
-0.0355721 2.44028 -2.09673
1.0373 3.11937 0.0594292
0.142063 -1.77943 0.769054
1.40754 2.71495 -2.23599
-2.78218 -0.311779 0.731243
1.6999 1.64367 -0.375614
-1.96212 1.73532 -1.31495
-1.57954 -0.0296364 0.048069
-0.30888 0.382008 -3.30821
-2.35575 0.615093 1.24668
-0.91695 -2.18908 -0.38039
2.1462 1.77906 -0.796551
0.379719 -1.25098 1.42774
1.14745 3.42662 0.607159
-1.18866 1.29862 3.2991
1.97126 1.52016 1.87542
-3.41103 -0.847286 0.0752144
0.172573 1.72613 3.0493
-0.131916 3.15031 -0.636044
-2.95259 -0.694103 2.98277
1.20256 0.485676 -2.27366
3.40973 2.57244 3.04094
1.30193 2.18311 -1.74558
-2.15826 -1.50452 -2.38631
-1.92651 2.64665 1.91603
3.48445 -2.07754 -0.0993462
-0.507687 2.89744 3.05709
-1.52574 3.02195 0.71587
2.37375 -0.872829 0.330647
1.82099 1.99897 2.64026
2.55104 -3.48915 0.0585899
2.05645 0.717129 -0.904499
-2.75648 0.0595055 -2.78874
-1.60726 -1.1741 -0.757725
-2.22676 -0.32864 -0.64661
0.677608 0.748569 0.279568
-0.332653 0.697483 0.641476
-3.15232 3.19352 -0.403927
0.182049 -0.867756 2.72696
0.286777 -2.56135 1.1904
-3.19017 2.26336 0.704975
-1.09095 2.27887 -2.64524
0.655849 0.799778 1.94979
2.90184 1.04702 -3.29165
-1.2803 -3.09578 -0.0847588
3.00299 -2.31882 -1.87172
0.108929 1.89432 1.82948
2.70872 -1.50568 2.48746
1.90015 -1.12246 -1.91583
0.555019 -3.47595 -0.941647
-2.27554 -0.185452 -2.21383
-0.38525 -0.371899 3.06876
-1.97099 2.07269 1.333
-2.25892 -1.33881 -1.68733
1.19185 -0.9725 -1.24757
2.32385 0.750919 -0.562672
1.61779 0.218372 -1.20388
0.569721 -3.20823 0.294155
1.65761 -3.03505 2.70723
-3.35138 2.40064 2.235
-2.02967 -1.11169 -2.0178
-1.49645 1.1483 1.14583
2.84027 -3.30429 0.151173
-2.38259 -2.27156 2.3479
0.373562 -0.994953 -2.69195
3.34642 3.20062 2.5945
-1.92481 2.98893 -0.72266
1.90488 0.539379 0.0728264
1.54476 -2.42643 0.0415001
-0.287594 2.2349 -1.62521
2.23014 2.41905 1.26682
-0.69138 3.39309 -1.65223
2.99533 -2.1707 -1.42099
2.27588 -3.39778 -0.688831
2.58764 -1.24483 1.31993
1.64661 2.13245 0.98502
-2.1434 1.41153 0.438419
0.933147 3.49044 -2.55774
-3.0927 1.85978 -1.98045
-1.71419 -0.662807 -3.28109
3.08816 -3.48594 2.14168
-2.0996 2.27974 2.99924
0.0149498 -2.47899 -2.707
2.32984 -2.0192 -1.56924
0.114239 3.2604 0.189648
-1.43628 2.3125 -1.74525
2.00586 0.891766 3.20181
3.45185 1.75209 3.15671
-2.59595 -0.8503 1.94915
-1.87332 -0.939281 -2.78101
-3.26717 0.882061 -2.73141
3.2676 1.43469 2.55204
-2.50674 2.87062 -2.46248
-1.07226 -0.181774 -1.47796
2.12111 -1.91928 -1.7531
-3.15968 2.73049 -3.50795
3.04585 -2.77314 0.387539
3.13521 2.76826 -1.39591
1.01701 2.15276 0.757511
1.77153 -2.97873 2.82195
3.04384 -1.31651 1.16848
1.52854 -1.04815 -0.932369
2.06977 -0.847889 -2.12909
-2.94372 -0.35091 0.692852
-1.6931 2.11236 3.3091
-1.19733 0.697933 1.97224
2.72574 0.541973 2.73464
-1.73751 -0.479527 1.96737
2.55553 -1.41166 1.58459
2.84195 3.14088 1.60958
-0.0569267 1.84507 -3.24246
2.01442 0.82156 -1.28688
2.88905 -1.71725 1.40076
1.04637 -2.18301 -2.48568
0.28812 -1.5912 2.6304
-1.27517 1.25123 -0.739017
-2.07607 3.05762 2.80667
2.89502 2.24783 -0.208385
0.412258 -3.02522 1.38367
-1.51369 3.53403 1.98902
-1.75243 2.30863 -0.233265
1.49622 -1.28383 -3.47905
-1.17037 -3.33676 -1.66077
0.347668 3.08783 -0.308247
-0.557468 0.59866 2.10427
2.70723 -3.18057 -0.711842
1.97837 -0.920208 -1.18975
-2.29736 0.00744247 -3.00927
-3.44922 0.366924 -1.49896
1.54351 -3.28817 -2.03228
-2.7571 -0.798138 3.28007
-2.70062 0.984966 -2.07111
-1.35767 -1.58616 -1.87233
2.3378 1.779 -2.32004
0.906544 -1.94068 2.28234
-3.34083 0.505573 2.6373
-0.995052 -0.322727 -1.35025
-1.00061 -0.879887 2.19272
1.03597 0.358288 -1.5077
2.00741 0.444599 -0.260334
1.75195 -2.07924 2.47706
3.21637 -1.3008 -0.60532
-2.19149 -0.465885 2.34405
-0.507816 2.71198 0.055706
-1.76101 1.51425 1.65056
-3.19106 -1.64656 -1.3794
-1.00578 -1.45185 2.83341
-1.88041 0.556812 -2.11383
0.147427 3.09174 1.24818
2.89081 1.06036 -1.37457
1.30053 -0.999577 0.0817299
-1.84033 -1.78316 3.31646
-3.03181 -2.63414 -0.684956
0.559429 -0.821911 -2.04033
-1.32554 1.67399 2.47764
0.298779 2.9167 -3.23626
-0.403347 3.26117 -1.6844
0.486546 -0.811954 2.40795
-0.800808 0.843174 2.43234
1.36016 -3.07675 -0.57465
-2.09365 -2.72147 1.96131
-2.84453 2.11459 3.18187
0.474232 3.27798 -2.51962
1.43763 -3.28936 -0.337811
1.37973 0.273785 -2.19935
1.14719 2.48378 -2.81819
-3.07274 -0.284794 -3.09255
2.87074 2.84739 -0.900784
1.23573 0.26659 3.47792
-3.40627 3.00132 -2.66617
3.09057 0.294125 -1.85211
2.20509 1.2042 3.2662
3.221 2.8952 -3.06242
-0.65234 -0.166103 -3.34806
0.152027 -2.26401 1.46125
0.869373 2.11944 -0.122318
1.78054 0.731098 3.12842
-2.65577 0.662075 2.90847
-2.2452 -0.534534 -0.360477
-1.37584 -1.83434 -1.42651
-0.224224 -1.70507 2.40315
-0.493557 -2.68185 -0.460003
-0.552258 -3.01229 -1.63215
0.635212 3.21243 1.73728
-1.97088 -0.507259 3.47699
1.44233 3.1803 1.52908
2.03522 1.51414 -1.80717
0.876339 -0.240849 2.39044
-3.01967 0.107098 -0.67963
-1.44246 1.39743 0.48975
-3.10666 -3.51394 2.32021
-0.0311317 -0.202625 -3.42899
2.87225 3.30754 -2.90575
0.542179 -1.31207 3.3104
-0.0481834 2.85868 -0.732395
-1.05464 -2.64774 -0.0876274
0.141911 2.79831 -2.64083
-0.00318527 0.766186 0.122036
2.3209 -1.89301 -3.3064
-0.72488 -1.90896 2.62657
-2.47202 0.184109 2.11635
-2.36547 0.61298 -1.15362
-2.26751 -3.4855 -1.38162
-1.49264 2.39047 0.841846
1.3105 0.397114 0.633175
-2.84448 3.35265 0.989155
-1.94978 -1.23752 0.251934
1.70779 3.43992 -3.04923
2.40511 -0.630611 -1.4067
0.964329 -1.84524 0.219868
-0.454853 0.965412 -3.13156
1.92706 2.02893 0.485142
-3.52191 -3.4039 1.00336
1.32366 -2.13587 -0.141705
-2.11052 -0.0929756 3.25913
2.41417 -1.31801 -2.99482
-0.401241 -1.15877 -0.696812
0.0850639 1.42698 -1.32424
2.68208 -0.932575 1.04887
-0.633587 -2.063 2.73916
0.238575 2.43686 -0.362774
-3.34363 -1.08534 -1.4012
1.19526 -3.22563 -1.26956
-1.48198 -2.74382 0.130108
-1.75838 2.11538 -2.4984
-1.21767 -3.53067 -0.812695
2.08924 1.88722 1.56407
-3.30235 -2.58137 -1.0763
2.28205 2.03923 1.99485
0.953869 1.18577 3.46738
-2.47625 -3.51516 2.83689
-0.341915 -0.272869 -1.78398
1.39225 0.919033 -2.00589
-2.01318 -1.42124 -1.21417
-1.50786 0.63232 -3.16614
0.683163 2.87766 3.37797
-0.820118 -2.40736 2.72966
1.1073 3.21741 3.152
-0.433384 -3.15229 1.6557
-0.0333519 2.6653 -1.22588
-0.731991 -0.448177 -0.737324
0.487751 0.611103 2.52534
1.48558 3.27291 -0.0911598
-2.26412 1.12962 2.49132
-1.89473 3.12016 -0.411892
-1.05229 -2.45505 -1.60158
-2.38998 2.23183 0.526592
-2.77351 -2.12382 -0.323345
2.88591 1.9872 0.0599022
-2.40732 -0.981716 -0.810329
-0.140926 1.98865 2.74521
-0.151119 -2.27887 -0.179218
2.76144 1.2126 0.558155
1.71723 -1.36917 -2.37957
-1.76201 -0.0977516 -2.79495
0.17194 2.01124 -1.24628
-3.36882 -3.10839 -2.54998
0.843372 -1.96284 -1.13827
-2.63226 -1.73263 -3.21842
0.561131 -2.91407 -0.6646
-0.229191 -0.785862 -2.21148
3.12712 2.60875 -1.48664
-0.382069 -1.60972 2.72968
1.77389 -1.38382 -1.17502
1.98266 3.33713 1.73095
-2.79915 -1.96041 0.206654
-1.8136 2.74706 0.101978
0.0518456 2.38196 1.14286
1.36896 -0.3102 -3.12531
-3.36299 1.06126 -3.03566
-1.57075 -1.91314 -0.817806
-0.053669 0.861385 -1.27641
-0.391338 -0.0788383 0.649403
1.96917 -2.99644 2.26931
-0.367229 1.78117 3.0709
-3.22792 -0.303516 -2.42505
0.409588 1.43287 3.32573
-0.983089 2.62298 3.17216
-1.10468 -0.392521 -1.20539
-0.604809 -3.09091 3.39141
3.11292 -2.91836 -2.58908
-1.69902 -1.48539 1.80783
1.9541 2.99647 -1.33835
1.68787 -0.930401 -1.33107
1.22324 -3.02858 3.45382
1.80191 0.139729 -0.385235
2.59211 0.447338 -3.01972
1.69693 -1.67861 -2.93227
3.49526 0.342022 -0.321072
-2.71994 2.77288 0.123554
-2.3053 -1.89928 0.208912
3.50625 -2.85371 3.25905
-1.36763 -1.54902 2.18818
0.836826 -2.13045 -2.27776
0.223293 2.56114 -2.30262
3.37359 -0.28297 1.37265
-2.18166 -2.01659 -1.24736
-2.11021 -3.49183 0.0777473
1.10425 1.20882 -3.11576
-2.83954 2.16854 2.66083
0.904903 2.45233 -3.3058
0.0966072 -3.38851 -2.15579
-1.25075 -3.41779 -0.16927
-0.524792 -1.7817 0.703999
0.708126 2.05884 -0.270397
-0.986576 -1.2534 2.98217
0.769779 -0.41534 -2.10177
-2.68801 0.406719 -2.05806
-2.80005 1.83204 3.15448
2.8645 -1.13105 1.78749
2.56242 -0.435062 0.704281
-3.1289 -3.06569 0.851307
0.705547 1.56645 1.43724
-2.12599 3.31942 2.65925
2.13915 -0.272724 1.65075
1.05397 -3.10013 -3.13819
1.95591 -1.08299 -0.549809
-3.1695 2.69051 2.86063
3.52051 -3.53303 1.15714
1.77246 -3.32936 3.0298
-1.05879 2.53885 -0.940792
2.79624 2.56574 -0.00276566
0.166126 2.44056 -2.50367
-0.24197 -0.389431 -2.71978
-2.12676 2.02011 0.543026
-2.26123 0.0919151 1.44661
1.19268 -2.92147 3.36734
0.51778 -3.50109 3.52232
-1.39243 -3.13505 2.99301
-1.89816 -3.15007 -2.87189
1.69658 2.15792 3.2025
-1.84172 -2.96821 1.70089
-1.34166 2.83175 1.60591
-0.525913 0.462337 -2.31906
-3.05024 3.22409 2.70478
1.4001 -2.43821 -0.738842
1.23191 -1.1639 0.875225
1.21869 -3.50675 0.377857
1.14435 1.54657 0.778339
1.80799 3.15786 0.631985
0.943142 -2.27584 -1.27744
0.108494 2.42447 -0.710117
-2.35295 -3.4846 -1.94572
-1.13647 -1.29073 1.52034
-0.967228 2.18708 1.20889
1.29765 2.67237 2.30622
-1.89447 0.536938 -1.39322
2.01892 -2.2985 -1.89624
-1.27009 2.92391 2.65404
2.89743 0.532726 2.27636
-1.91555 -1.72663 -3.06682
0.378056 2.75205 2.89318
2.96787 -1.20681 3.4123
0.952671 -0.0242195 -1.41397
-0.373974 2.84303 -2.76242
-1.60329 -2.19155 2.91367
0.00721359 2.10982 -0.616741
2.11469 -2.32019 1.62029
1.2332 2.70245 1.00866
0.442211 -1.10318 -2.52596
0.379108 -1.74128 -0.717052
-0.795063 0.878704 -1.50054
-0.918301 -2.27877 1.29638
1.67145 -3.37825 -2.79519
2.44456 2.10995 3.05156
2.29088 -1.79956 -2.67553
-1.86139 -0.399128 3.43801
2.76262 -3.45926 -2.41771
-0.29607 2.19096 -3.25079
0.713505 -0.643192 -0.818432
3.53199 3.33455 1.444
-1.0359 -0.353687 -1.21283
-3.27506 3.38678 -0.487881
-2.53472 -1.06705 0.669399
-2.0187 -2.93113 -1.288
-1.6905 3.51715 -0.0838356
-1.78802 1.74068 3.05257
-1.20201 3.41482 3.12884
-0.449078 3.11009 1.25245
1.73621 -0.721516 -1.92627
-0.35532 -2.54354 -2.65907
1.43557 -3.07891 1.52278
-2.11966 -0.579273 1.37403
1.55346 -0.850613 -3.22856
-3.27007 1.1502 -2.15597
0.181629 2.13523 -2.17436
-0.833149 3.44844 3.10186
-0.771656 -0.875111 2.44933
-3.05474 0.926601 1.49207
-1.44548 3.48124 -1.76498
0.430988 2.68192 -1.30481
-1.58177 -1.20893 -0.848179
2.79598 -2.84071 2.57627
3.10295 -1.42483 -1.80988
-3.12037 -3.4069 2.34404
-2.291 3.39782 0.943737
-3.2565 -0.487904 1.85665
-3.3427 2.21448 -3.08581
1.6849 -2.09271 0.844509
2.92364 -1.14373 1.79022
-1.9167 0.946331 0.936604
1.23884 -2.69003 2.73139
0.279575 -1.26808 3.42621
1.47342 -2.00763 -2.06597
1.28193 -1.97203 -2.46915
-1.30987 -1.55686 -2.60687
-3.52057 0.687672 0.440762
3.4684 0.966709 -0.412106
1.77738 0.627728 0.498905
0.0320625 -0.754719 2.89071
-3.09868 -1.36661 0.769695
3.16824 0.720409 1.6152
3.5271 -2.1081 -2.72023
-2.60621 1.1752 -1.19233
-0.539829 -0.886921 0.371181
-0.142979 -3.14053 2.81804
-2.23775 -0.446682 -0.0298195
0.353863 -0.431721 -2.59864
-2.68277 0.501148 2.0328
-2.8594 -1.78882 -2.25745
0.914013 1.77877 -0.0885277
-1.53814 2.21563 -3.43547
-0.722828 1.31652 -2.00803
2.62038 1.30809 2.7027
-1.07579 2.70559 -1.25157
-1.79328 -1.36977 -0.856564
1.18062 2.02279 1.70047
3.11751 2.78875 -1.7986
1.08297 -0.392918 2.23809
2.36105 0.928036 3.45298
-1.79483 1.07235 1.69622
-0.694759 -1.54917 -0.155499
0.30093 0.448231 -2.37452
0.468098 -2.81013 2.93729
2.75206 2.81397 2.10735
-2.17185 -2.32917 -3.32977
-3.00691 0.41309 2.22855
-1.26997 -1.94182 1.94995
-3.09923 -2.89166 -1.9785
-3.18178 1.19503 1.95326
1.51816 0.0205421 -0.509922
-2.70469 2.76125 0.94463
-2.07548 -2.00086 -1.14267
-3.20554 1.83561 -0.949085
1.90553 -1.23183 -2.20247
2.11129 -2.54712 -1.52791
1.2725 -0.715244 2.42071
-0.313084 -0.186619 -2.58846
0.712139 1.54713 -2.4764
-0.401951 1.98343 3.25416
2.62366 1.80537 -0.792645
0.500942 -0.743816 -1.56693
2.36199 0.0870323 -0.0322533
-2.65445 1.54708 -0.732182
-1.32138 2.87708 1.03971
0.686245 1.24707 2.49631
0.039608 0.822834 -1.75447
0.454868 -1.97202 1.06263
0.982189 1.25043 -0.92577
0.169003 -2.10478 -3.00969
-3.15918 1.0288 1.7994
-1.72239 0.585117 -2.47995
2.24908 -2.44947 1.14262
-2.55045 2.91623 -0.845829
1.49298 -3.27375 -2.0361
0.453754 -1.5914 -3.32456
1.70301 2.09856 0.501995
-0.769894 -1.92918 1.5337
1.30806 1.52941 -0.751408
1.30209 -0.0239372 0.679348
-0.43404 3.14878 -1.3592
0.621548 2.99333 2.76146
-2.30318 -1.79641 -3.22355
0.85471 -3.08286 3.22821
2.35415 -2.62959 2.95819
2.03331 2.39892 -2.16875
-1.53205 -0.214672 3.46534
-3.53389 -2.0472 -0.999371
-1.28157 1.18663 3.53376
3.40149 -1.57267 -0.557529
-1.49324 -2.80611 0.0557213
-2.26731 -0.236431 -1.0183
-2.48715 -2.68223 0.720829
-3.32628 -1.98169 0.641689
2.63562 2.40855 1.54763
-3.06866 1.69535 0.879208
3.4004 -0.338696 -2.871
-1.66632 2.66479 -1.91448
-0.668095 2.13462 2.80768
2.30991 -1.68248 -1.83233
-1.70172 -1.81652 -1.63472
1.81552 -0.306042 1.66438
-1.531 0.430363 1.98587
3.11441 1.47875 -2.53136
0.594692 1.15619 3.41272
-2.06163 0.256275 1.04072
-1.92891 0.191334 -1.83351
0.692142 0.0562019 -3.23606
-0.567524 2.92542 2.43409
1.13568 -1.81002 -3.31574
2.50467 -3.03565 -2.12854
1.63352 -0.733646 1.10095
-0.447964 -2.45366 -2.53604
0.55621 -0.980946 1.94643
0.901585 -1.40207 -0.432919
-2.12504 3.19634 2.82708
-0.423016 -2.40083 -0.517124
-0.655361 0.205791 -3.52827
-1.28862 -3.16941 2.40087
-1.06882 -0.201405 -2.94469
0.806355 -2.13308 -2.97662
-2.16005 -3.16394 -0.174732
-0.160549 1.4733 0.375324
-1.74965 -1.5102 3.3981
2.35296 2.04973 -1.53951
1.11269 -0.584217 -2.41052
-2.47178 1.82627 -0.275814
-2.46452 -2.66409 2.9337
3.47188 1.21608 3.29982
3.53091 2.93119 -0.437122
-2.98124 -1.67317 0.965336
0.847744 2.66872 2.33693
-2.84428 -2.02686 -0.257114
-2.98172 0.816311 1.76822
-0.517506 2.60219 1.28242
0.60751 0.887806 -3.36914
3.33541 -0.535038 1.46085
2.73358 0.528713 3.33229
2.49786 1.59973 0.48103
-1.00661 1.00426 -0.123318
2.96244 0.467823 1.20723
1.23203 0.490299 0.808605
-1.56062 -2.19749 1.78547
-3.32793 -0.506237 -0.933758
0.95821 -0.484234 -1.8671
2.1246 2.53379 3.02443
0.0499153 0.0739555 -1.04615
-0.685139 -0.126163 3.0181
2.79961 0.0718803 0.55048
-1.39106 -1.49761 -2.51261
-3.25117 1.03131 1.49075
1.09297 1.45823 -1.55449
-1.18892 -1.37709 0.251743
0.881046 0.59782 2.74923
2.01767 1.27361 -1.27054
1.50656 -1.30371 -1.8041
-3.07512 -2.71465 1.80539
2.9467 1.33899 -2.38812
-0.570171 -3.4135 1.2193
-0.0790596 -3.14943 -3.34566
-2.12384 -1.00495 1.22119
0.32539 -1.2524 -1.38794
-2.9584 2.84429 1.7705
2.79454 -1.88016 -1.69902
-2.54335 2.53642 3.11012
-0.811909 2.01855 -0.72913
-3.07386 -0.54224 -0.44006
-0.926449 0.918171 -2.63661
3.29657 -0.20248 -1.51458
3.48644 -3.30819 -1.66028
1.64028 -0.383526 0.33849
-3.28319 2.02816 -3.44944
1.49103 -1.71379 2.93038
-2.74353 -1.66848 -1.48532
-3.16894 -2.40947 -3.01625
-0.362537 -1.41728 2.00602
-3.33813 2.30635 -1.07175
-2.97102 2.2362 2.85014
-1.48188 -2.7576 -0.887875
0.393375 -1.99656 -1.19234
-1.80367 -2.57747 2.95967
-1.71758 2.59834 0.920483
-2.32273 3.31887 2.74222
-0.804333 1.27436 -2.46179
0.714954 1.53456 -1.86753
-1.34637 2.36934 0.250721
1.11741 -1.52874 -1.51028
-0.0997963 -1.86315 -2.34143
-3.5232 -0.830448 -1.56349
-1.71183 1.22321 -0.556332
-2.81951 -0.918949 1.40173
1.10469 0.281101 0.464535
-0.220432 2.09906 -0.283947
0.321499 2.78004 -2.07693
1.9895 -0.559826 2.99316
-0.295315 3.15885 1.82696
1.19812 -1.72306 -2.76912
2.39223 3.39808 -1.62855
-1.70679 -0.237255 0.54472
0.740597 -0.756741 -0.767605
-1.39321 1.53515 1.31717
3.07505 2.25118 -1.93727
-0.744434 0.288525 3.16551
0.714169 -3.46744 1.8782
1.17179 1.38959 -2.21716
-1.06859 -0.688259 -3.12566
-0.833996 2.02015 -0.313183
2.07299 0.682735 -0.982456
-0.917828 -0.992382 2.31582
1.31829 0.304546 -1.50827
-1.4319 -1.49039 -3.50865
-0.365444 0.651936 1.74625
-0.73547 0.191448 -1.50076
-1.3928 3.45073 -0.964481
-0.606243 0.629368 3.42883
0.803631 -2.26619 -0.794964
3.49417 1.20076 -1.31035
-1.55564 3.37048 2.3761
-3.30716 1.90793 -2.15181
-1.2799 -2.07724 2.68827
-1.25301 2.24476 -2.33766
-2.57411 -1.72267 1.318
-1.07115 1.44742 -1.02609
0.96809 -2.3554 -1.6427
0.861385 -0.74448 2.5222
-2.46911 2.18481 -2.27952
-0.775745 -1.07891 1.92495
-1.93518 -1.65209 1.7599
-1.08327 0.327808 0.600483
-1.93054 1.55618 1.52696
-1.26448 3.28 0.236187
-3.01383 -1.04036 2.04905
-1.0362 -0.0789299 0.429127
0.856632 2.38546 1.60926
-0.156704 0.818012 -2.67075
0.567493 -2.38795 2.51778
-1.5749 -1.85334 -1.62848
-2.35054 0.906445 -0.276844
1.25367 1.97499 -2.48457
-1.28672 -2.17563 2.07533
2.485 -1.10245 1.8198
1.4667 2.16861 -2.75609
-1.63971 2.69031 0.168697
2.97328 -1.88142 -0.513195
3.30625 1.97893 3.30854
1.75668 -1.71331 -2.61495
-3.40733 3.38972 0.0672417
0.85136 -2.25253 -3.09366
1.37051 -1.59935 2.88504
-0.62151 3.18985 -2.82612
-2.33725 -1.6324 -0.39304
-1.08962 -2.21476 -1.75997
2.0828 2.78748 -3.137
-1.96593 -2.91957 -2.01471
-2.19293 -3.48183 3.49976
-0.804157 2.82814 -1.2809
2.79862 1.04928 -1.95852
2.70868 2.17749 -0.675518
2.05819 -1.0385 2.26067
2.7676 -3.20353 1.38317
-0.160976 -0.821316 -3.31658
1.08278 0.376972 -1.9958
1.94949 2.29107 -3.27567
2.9385 1.83834 -2.65971
3.37091 2.87613 -3.13782
-1.44551 -1.85234 2.69403
-0.400318 0.87904 0.207783
2.4597 -0.38969 -1.68208
0.653019 -1.21655 0.814953
-0.49934 -2.22571 0.615147
-0.280384 -2.99365 3.32936
1.25935 -0.150906 0.638988
0.9874 -2.13548 -1.13729
1.86322 2.81773 -3.3663
1.72912 2.2207 -3.02571
0.887623 2.05608 -1.34251
-2.44013 -3.45678 2.54025
-0.118488 -0.321568 -1.38498
-2.83907 -0.929218 0.402195
1.7798 3.25933 1.71202
1.57363 -0.775539 2.72209
-1.85473 1.9478 -1.49617
1.54351 -0.860203 -0.0961113
1.71275 -3.40834 -0.813915
1.69076 1.99042 -1.12875
-3.18728 -0.347805 -3.14002
2.35669 -2.99572 -2.59308
-3.09564 -1.43213 0.620884
1.31028 1.98492 3.2272
-0.513241 2.14957 -3.12007
-1.8585 0.393833 -0.891888
1.18087 -1.09989 -1.47963
-2.98259 0.049099 1.19571
0.739025 -2.47474 2.3229
2.61399 3.24173 0.245975
2.4777 1.39696 -2.63736
3.42015 2.2134 -2.62936
1.5055 1.03455 -1.05777
0.665348 1.94263 -2.60838
0.549 -0.282627 -3.52616
-3.41024 2.73967 -0.128605
-1.35433 -2.18618 1.77523
2.8451 2.53022 -0.711208
1.10065 3.08316 0.34959
-1.18891 -0.245167 -0.476025
-0.822552 -1.16671 -1.6146
-0.448193 -1.75636 -2.93673
3.02958 -1.87175 1.10154
3.42492 2.63747 -0.491367
3.43429 0.23547 2.76154
0.238338 -2.75106 2.43386
-1.52197 -3.15758 3.25139
1.30236 -0.976376 2.24607
-1.4154 -1.19863 1.26188
1.64411 3.43756 -2.05063
-3.50602 -1.8187 0.318195
-3.43904 0.362469 1.56556
1.66622 -2.62126 -2.84172
-2.36068 3.41204 2.79947
-2.66649 3.30142 -0.500599
2.77108 -3.40271 0.752056
2.48694 0.371166 1.13001
0.665668 2.38473 -2.91372
-2.1398 0.61974 -0.576809
-0.654896 2.73987 -1.2066
-3.40405 0.316631 0.97842
1.69704 0.814327 -2.19464
2.39085 0.910824 -1.81218
2.65478 -0.958492 -1.93568
-1.91317 0.684544 -1.70161
2.37442 1.02177 -1.56878
0.968899 0.25732 1.8061
1.59072 -1.32309 0.6553
-3.05344 2.87812 -2.26049
-1.25632 -3.32903 3.4831
3.25763 0.551609 1.26419
-2.00436 0.683094 -1.45701
-0.28101 -1.1554 2.45753
1.78703 -1.8319 -1.56831
-3.45012 -3.24446 2.65177
-2.01518 -1.6221 -0.39381
3.32646 -2.31502 2.86723
0.446224 2.18941 -1.99139
2.18945 -0.28722 -3.18062
1.6052 -0.336941 -2.97412
-0.666142 1.94227 1.11303
0.880566 2.66437 -2.27123
0.802563 -2.87552 1.10891
2.76979 -0.152813 2.28073
1.35421 -1.90132 2.5718
-2.57514 -1.8159 -3.11765
-3.24344 -0.295544 -1.89714
-2.23111 -1.03643 3.29599
-2.40802 3.41351 -0.52676
-2.37841 2.06742 2.67183
2.73833 -0.394726 2.07857
-3.06843 3.47467 0.675594
1.04419 0.819698 0.803791
-0.210613 -2.44509 -2.88456
-1.17435 -3.21083 -0.25034
-0.28828 1.14709 0.937481
1.35012 2.10749 -2.42541
2.11058 1.86776 0.0736885
-2.48353 2.64037 -0.048336
-2.34723 3.23607 -2.04826
2.73506 -1.67788 2.09255
-0.656696 -2.47508 1.49987
-3.38844 -2.53979 -1.74778
-2.73746 3.03994 0.342663
0.0159187 -0.706211 0.135548
-2.11395 2.12316 -1.2529
-1.00383 -1.70066 -3.21276
2.07358 2.65318 2.65873
-0.510288 0.696407 1.23175
0.445171 2.74841 1.93229
-0.997814 3.4049 3.25813
3.50577 2.07261 -2.75248
-0.777546 -2.11963 -1.75674
2.56884 -2.50434 -2.78415
-1.36296 -2.23809 1.04517
0.387859 2.31337 -0.899021
1.71064 -3.33612 0.404041
0.302013 -1.33622 -0.478313
-2.00177 -2.79818 -2.31744
2.93423 -0.304745 3.43469
2.65683 -2.39511 3.30405
2.90806 -0.389202 1.30931
-1.91603 0.581036 2.72522
-1.16465 2.80721 -3.31466
3.41606 1.84051 -2.54903
-1.55031 3.48127 3.29987
2.38926 1.33359 2.96747
-0.624584 -1.02312 -2.4361
0.0616951 2.81443 -1.23056
-0.570965 -3.2547 2.00023
-1.33426 -3.38781 3.14066
3.51058 2.80455 -0.315891
2.70026 2.64526 -3.27039
2.38932 -2.8063 2.54054
3.37582 -0.435413 0.313702
-3.46273 -0.0867043 0.259434
2.50846 1.89852 -1.94251
-2.99498 1.75225 0.569904
-0.690006 -2.93969 -0.683018
-2.22531 0.125729 0.59782
-2.152 3.0903 0.745541
1.06765 -1.7795 -0.517262
0.800976 -2.33627 -1.40754
-0.194019 -3.17154 -1.21012
-3.41585 2.22149 2.89
0.379116 1.52996 -1.26405
2.97214 1.07096 -2.90107
-0.525303 0.512074 1.8549
3.32721 1.05262 1.91893
-0.142315 3.36634 -2.02269
-3.46412 -2.3945 -2.99974
-0.44585 -1.54278 -1.2437
2.15033 3.0604 -0.576252
-3.12713 0.32584 -0.744076
3.2984 -3.40371 -2.05812
-2.03299 3.25522 3.47557
-0.93034 1.0988 0.479176
-2.61097 0.00359726 -2.54428
3.31168 2.48201 1.51206
-2.24654 2.27369 0.811047
-0.710743 -1.93597 2.95208
1.04927 -1.86456 -2.12624
-2.06251 1.69331 -2.13319
0.728947 0.308109 1.72818
2.67455 0.716511 2.32819
2.08277 0.947567 2.04788
-0.973591 1.91829 -0.920666
0.485844 -2.54758 2.08665
-2.06945 -1.15483 2.03313
3.27713 -1.37869 0.239475
2.16186 -0.62151 2.83904
3.03934 1.67147 -3.09287
-2.62938 -0.346607 2.13597
-3.43673 1.12642 -1.62326
1.89518 -2.21199 3.09697
-0.124294 3.46628 0.508999
3.49057 2.01352 -1.10824
1.50988 -2.02742 0.347897
0.00747299 1.46214 2.7286
-2.8204 2.39641 -2.71744
-3.5169 2.13801 0.196583
-3.07423 0.232525 -0.667484
3.06546 0.736332 2.52144
-2.09333 1.64248 -0.419491
-2.5319 1.20947 0.372242
0.980816 -0.430889 0.771175
-3.19477 -3.09072 -0.750843
0.688656 3.40358 0.225452
-0.118282 1.37792 -2.37976
0.69981 -1.68196 -2.51888
-3.17096 -0.966824 2.62285
-0.302906 -1.48 0.319843
-1.84881 -1.55051 -2.47936
0.735416 -2.02058 2.69866
-1.42788 0.421619 0.840778
2.34702 1.42525 -3.12564
-1.93936 -0.129467 -3.21264
2.28981 -0.320522 3.19465
3.44559 -3.1674 2.03704
-3.14064 -0.281963 -3.18045
-3.05332 -3.11769 -1.14356
0.802059 -3.28492 0.911976
1.85823 0.947704 2.897
0.489544 2.10261 -1.65911
-2.20521 -0.229321 2.29804
-1.32714 1.34652 -0.344059
-1.53606 0.158009 2.53019
-0.876942 1.22237 -1.32586
-2.90725 -0.0233498 -1.48954
-2.55217 0.354893 1.76403
-0.692013 0.74979 1.65006
-3.31557 1.23201 2.90067
3.11696 -2.03328 -0.218975
-2.6095 3.36049 -2.18371
2.69226 0.782681 1.1225
-0.187336 1.58119 -1.06651
-1.72449 -3.28148 2.62703
0.953365 -0.282009 1.31387
2.99936 1.84477 -2.77683
2.22785 2.47305 0.581783
-0.189442 3.45641 -1.20396
-0.824306 -0.771137 3.03176
1.96044 -1.08299 -1.53705
-2.75881 -2.03337 -2.24392
1.89923 -0.107342 2.0743
-1.70282 -0.950619 1.11995
-3.14313 1.86576 0.84219
1.70627 -2.39426 -3.50717
2.93316 2.09464 1.87313
-0.0205879 1.55846 0.81065
1.77917 -0.28104 0.199711
2.2754 -3.00602 2.43229
-3.329 -0.826603 -2.18623
-2.56919 -1.4017 0.315929
-3.03043 -0.624973 -3.32695
1.09324 -2.79309 -1.27385
-2.13192 -1.49219 -1.94361
-1.10355 -0.0997887 -1.33416
-2.76595 -2.46087 -2.77505
2.58023 -3.06324 1.78713
-0.755589 0.919895 -1.56126
-1.39064 -0.836468 -1.56356
-0.0413399 -2.62841 0.61356
-3.26094 -2.95369 2.74739
3.4869 -0.987354 -1.94493
-0.854298 -1.01406 -0.202488
0.737621 -3.45636 1.84085
2.939 -2.58455 -2.32628
3.16767 -0.152569 -0.251614
0.887447 1.61702 -0.311131
2.86172 0.129902 -2.92677
-2.76918 2.37803 0.240482
2.37991 -2.54815 1.1476
1.59177 1.41423 2.72944
-3.42051 1.15701 -1.79345
-0.619274 2.10837 0.728024
-2.84577 -2.81327 0.275387
-0.636517 1.45988 1.22637
2.11559 0.331532 -1.99355
-1.73108 -0.56815 2.62719
-0.122311 3.32302 -0.778446
-3.41736 -3.42186 -2.46776
0.733959 -2.65551 -1.01219
-0.603947 2.72812 -3.13349
1.13814 1.25254 1.55906
-2.20118 1.36757 -0.399921
1.07792 -3.31906 0.322338
-0.763058 -2.62929 -2.28513
0.778927 -0.262089 1.05012
-0.129421 -1.68203 -3.05356
2.09585 0.590611 -2.79789
3.16362 3.47202 -2.68422
-1.91591 -3.48088 -2.33602
-1.51387 0.256802 -2.14344
-2.49035 -2.88268 2.11282
0.113453 1.25918 -0.0551491
-2.09974 3.06172 -0.370487
-1.38115 0.604107 0.00394058
-2.86657 2.84477 -2.79368
-2.91641 0.0881615 -1.472
-2.17877 2.96246 2.65415
-1.85927 1.52278 2.59063
-0.19157 1.61905 2.11348
0.668713 3.23867 -0.697071
-0.754002 -0.810726 -0.0442162
2.19457 -0.297352 -2.85238
-1.71145 3.35163 3.21305
1.82802 -2.81546 0.749813
2.03806 0.338924 0.0590477
-1.96947 0.476078 -2.38832
-3.38267 1.0952 -3.49321
3.21168 2.92015 2.5651
1.78962 -2.47465 0.648617
-2.44298 0.869312 -0.180058
0.516521 -1.99751 2.01294
1.66786 0.252209 -1.81995
1.34538 -1.08876 -1.53566
-1.44034 0.735325 -1.3474
2.62243 -0.504002 1.99524
3.23782 -2.00148 -1.06421
3.28014 -0.967228 -3.03636
2.3097 0.185635 3.41933
-1.10903 -0.138218 -3.12267
2.71463 -2.41594 1.75036
1.19204 -0.855206 2.75657
3.3758 2.66504 0.473248
-1.69539 0.797359 2.92002
-0.0390739 -0.92461 1.11982
-0.579365 0.638767 -2.91972
1.89196 -0.274342 -1.91748
2.39113 -0.572056 1.65083
1.74311 0.17255 -2.23088
3.15598 -1.58509 0.634617
1.37081 1.3096 1.75421
0.591846 0.488697 -2.63653
-2.47044 -1.8548 -3.03885
-2.61776 -2.01453 1.29405
2.03759 -0.706203 3.37316
2.12159 -3.28081 1.47639
-3.33142 -0.324642 -2.33348
1.32312 -1.96822 1.09818
2.62777 -2.64444 -2.2648
-0.273144 2.1024 -0.84618
-1.58628 1.72284 -3.07212
-1.2191 -0.973698 0.4203
-0.722408 -3.4492 3.10103
-2.49571 -2.91592 -2.98085
-2.65808 -1.99815 0.848484
1.82203 -3.4961 0.571392
-3.04699 1.62921 -3.28878
1.0549 2.3015 -2.25328
1.79382 0.0890923 -1.894
-2.58789 -0.350483 -2.32714
-1.65629 2.38009 2.39943
2.29954 -2.74173 -1.10981
1.33323 0.0428963 -1.55529
2.88791 2.85602 -0.935673
-0.330952 3.36403 1.60171
-3.29509 -2.3614 1.10933
3.49091 2.99616 -0.328808
-2.29791 2.95288 -1.56284
-0.18819 0.472256 1.52997
1.02021 -1.26946 -2.35604
-0.115902 0.146366 -2.51149
1.77801 2.02561 -2.24949
-3.31281 0.257801 1.32894
0.287052 -0.944508 1.11761
-2.17859 -2.12394 0.94611
1.93447 1.08064 2.12024
-1.92987 0.789265 2.58087
0.04282 0.212826 1.4664
-0.962742 0.918636 -0.596874
-0.315067 -2.80509 1.13739
0.177166 1.21884 -2.25178
2.46321 -1.4326 3.30936
-0.275204 3.34913 1.03163
-2.69313 -3.03102 3.09084
2.2567 0.791561 -2.56864
0.309597 1.6167 1.51572
-1.17688 0.0156288 -1.76236
-2.24601 2.62129 1.986
0.160831 -1.40324 -0.630901
-2.23732 0.637737 0.56773
0.0464363 -2.21286 -1.74897
-0.711552 0.968021 -0.177845
3.3238 -0.63612 0.635754
2.8791 -3.44686 1.14026
3.31418 -3.13626 -2.13552
0.762554 2.12416 2.48489
2.53572 -0.10178 -1.03502
0.454372 2.25687 -2.48108
-3.24388 3.01458 0.651218
0.859386 -0.360126 -2.77839
2.64595 1.93809 -1.45572
-0.599239 -1.55101 3.51602
-3.49902 0.741161 -0.655636
0.644962 1.52942 -0.566959
1.51316 0.87299 0.300495
0.462513 1.11982 -1.11088
2.43122 -1.65316 2.32287
-2.58539 -2.18478 1.51239
1.06955 1.80513 0.991436
1.82669 2.09678 -1.90422
-2.69638 -1.11118 -3.50167
-2.7159 -1.53257 -2.04895
-0.367817 1.40372 2.22774
-3.47031 0.908421 0.22163
-0.166096 -2.51397 -1.97273
2.25856 2.53473 2.68263
1.51408 -0.538296 -3.03788
-1.04087 -2.17443 -1.68712
3.4861 -1.22429 -2.94934
-2.48548 2.84898 2.15116
-2.45161 1.60832 -1.49556
-1.49685 1.91565 0.507404
-1.80464 2.20347 -2.15622
1.42071 -1.69988 1.75592
2.4517 -1.63465 2.77748
1.06698 1.20297 1.77668
2.56464 0.925991 -2.82897
-3.18983 -1.62728 -1.99968
-2.60364 0.867382 1.31157
-2.98802 0.817944 0.0932045
-1.47985 2.868 -2.36583
2.56308 3.42011 3.08536
3.41058 -1.14408 1.7533
1.63096 0.0549965 -2.48211
0.341099 -2.59164 -1.11305
-1.94957 -2.67547 -2.44561
-1.24301 1.92704 1.4841
-0.238964 0.424335 3.39235
-2.99474 1.77004 0.724201
1.634 2.17012 -2.5252
2.80371 2.71763 3.34652
2.82172 -2.29776 -3.37179
1.03949 3.26905 -0.980343
1.56109 2.61228 2.61019
-2.6193 0.707706 -3.51699
-2.0612 -3.01854 -3.18874
2.95843 -1.43258 2.74202
2.28344 0.859943 -0.369175
-1.05971 -2.44637 -2.66648
-0.0493813 -1.90557 -3.0319
0.7616 3.26396 2.68945
0.925343 3.00032 -2.67566
2.94872 2.2865 -2.94214
2.02337 -0.74136 -3.39721
1.51011 -1.7158 0.314213
2.8569 -1.33139 1.8312
2.06339 0.142948 -3.13691
-2.37313 -0.965969 1.72675
-0.504086 -2.74988 2.81591
-0.532269 -0.274059 -2.62519
-1.37835 2.68028 -2.42859
-1.05029 -0.0936546 -2.9638
0.0112877 -3.23566 2.85823
0.149609 3.24859 -1.41866
-3.07171 1.20462 -0.130741
2.29502 -0.352627 2.07341
3.16183 -1.56308 -1.85099
1.35305 3.50403 0.186756
0.633427 -2.40464 0.972408
1.54377 0.0949974 -3.369
2.1189 3.09826 -3.22425
2.69063 -1.34744 -0.31419
1.48152 1.13781 0.985683
-3.00449 -2.91825 0.166927
-0.131512 0.766888 -1.6958
-1.12545 1.69889 1.4871
0.559086 0.458385 2.92775
-2.32151 0.0846825 2.89624
2.18644 -2.62962 3.49533
3.35297 1.53934 1.05479
3.13243 0.0157585 0.0857048
-0.717289 -1.40088 1.74199
-3.26714 -1.77759 -0.187557
0.903507 3.23946 0.429722
2.74324 3.23869 -1.33892
0.162991 0.571644 -3.17556
-0.444798 2.98172 0.286541
-1.6159 0.00527573 -2.69613
-1.65611 1.2193 -1.79021
2.93422 0.33839 -3.31822
-0.0474281 -0.375988 0.233074
-1.84098 -0.779087 1.83592
0.975185 2.03916 -3.47721
-1.13063 2.77574 -3.3051
0.534168 -0.388103 3.46913
0.362324 -1.71222 0.505238
-2.88667 1.45449 -0.0485725
-2.57907 -3.05765 -3.11065
-0.365566 -1.13802 1.11238
-0.148251 0.209591 -2.61658
3.08854 0.608273 0.542965
1.38893 -3.5065 2.7676
1.91544 -2.34376 1.73941
1.61406 3.16696 0.447796
1.01584 -2.03102 -3.47584
-1.01445 2.03868 -2.18434
1.94069 -1.13453 2.80569
1.83377 -1.01748 2.75176
0.41061 0.407169 -1.92179
0.797749 -3.49393 1.82333
-1.19482 -0.106647 -1.63575
-2.49457 -0.553638 -2.13853
2.78037 -3.23206 0.0532417
-0.839184 1.6871 -0.847149
-1.31131 -0.766186 0.657368
0.0398903 -2.28588 -0.839481
-1.22177 -0.296612 1.02971
-2.00554 -1.89145 3.01596
-0.923618 -2.59322 -0.112408
-2.16764 0.82111 -0.0708046
-0.267849 -1.91668 2.82627
1.59734 -0.107777 -1.26291
-1.88495 1.40137 -0.491245
0.803432 0.114391 -2.87149
-2.60655 -3.26033 0.897854
-0.44231 -1.0361 2.14751
-2.94813 3.00751 -1.68464
3.07154 -2.2816 -0.572369
0.423603 -0.283428 -0.161869
3.35652 2.32849 -2.87629
-3.42382 -3.37468 -0.789249
-1.683 0.361187 2.10669
1.36129 -1.57701 -0.0274696
2.49351 -0.458241 -2.44861
-0.144169 3.34891 -2.70522
-2.06401 -2.79317 -0.737598
-0.744923 0.300053 -1.79744
1.68643 0.35564 0.456493
-1.01097 -0.108349 -3.36247
-0.883549 -3.22028 1.96974
1.33092 -2.93111 3.13059
0.902081 -2.81939 -0.575573
-3.19274 -0.966862 0.851139
-2.10582 -2.67292 -3.14264
-1.80732 3.35612 -3.32926
1.99062 -0.855396 -3.11871
-3.34235 0.0843163 0.185062
0.117863 2.34311 -2.99483
0.290928 0.494007 0.432354
-0.274868 3.01857 1.21579
-1.21163 -0.400517 1.82022
1.21652 -2.60513 2.00454
-1.46788 1.30067 -2.49785
-1.60679 2.64347 -2.16706
-1.40052 -3.5297 -2.87828
-1.51551 -0.801479 -0.198147
2.20509 -2.34639 2.88989
2.74579 -2.68502 1.69747
-0.889202 1.96837 -0.344059
3.33031 -1.80805 -0.861027
1.61499 1.45262 1.74218
0.0840034 3.24471 3.14077
1.58987 0.925694 0.905903
2.95835 2.46154 0.0138359
-2.45547 -2.68079 0.487858
0.350101 -1.07759 3.22191
0.704456 0.94244 -3.19183
-1.66542 -0.919819 -2.34132
1.52605 -2.24137 3.16259
-2.40232 1.40496 -1.181
2.34357 1.19973 3.27534
1.9488 -0.252621 3.4527
0.319172 2.8351 0.311047
3.33673 0.889439 0.237049
0.289051 1.31225 0.559978
-0.556385 1.8605 -3.05314
-0.212681 -1.32493 0.893017
1.98153 2.38324 -2.56234
1.07677 -1.81771 -1.79999
2.89949 3.24387 3.1405
3.10749 -3.2258 1.27288
3.02465 -3.41777 -2.51527
-0.731647 2.06657 -3.2157
2.50912 -1.68161 1.67746
0.533566 -1.41223 -1.07764
0.484142 1.88054 -2.75267
-2.15837 -1.21138 -1.07389
-1.71699 2.11148 -1.22618
1.01855 0.0256615 0.491642
0.0917015 -1.4331 -0.331837
-2.70276 -2.60096 0.977894
-1.6825 -3.029 1.09566
-0.894482 3.53119 -0.905117
-3.28437 -0.267811 1.417
-0.826481 -1.29422 3.00849
-0.0436211 2.77488 1.3535
2.41803 -0.276516 3.14584
-2.8755 1.56883 2.18997
1.15168 2.85556 -1.3199
-1.71569 -0.193241 0.250713
2.26592 -2.63707 2.18529
-0.705769 -1.8043 2.16001
1.92465 0.516918 2.62384
-0.725704 2.62616 -1.1795
-1.25275 2.87732 1.06181
-2.43479 -1.4847 0.769337
-3.3563 1.4754 -3.04271
2.36921 -0.173923 1.52983
-2.01805 1.48611 1.84986
1.7682 -1.42956 -1.87892
-0.113857 -0.141537 -1.51227
-1.0212 -1.41115 0.687145
-1.93289 0.886799 -2.33147
0.423145 -0.255901 -3.24085
-2.05058 2.55393 2.64019
2.25429 -1.23436 -2.91186
3.2153 -0.665424 2.09907
0.677784 -0.486187 -1.61039
-1.53971 -1.18433 2.87944
1.11691 0.333157 -1.61747
2.60836 -1.43418 1.77653
-0.240032 2.45568 -2.70197
0.432217 -2.10105 1.72036
0.195087 -0.498402 -2.07107
-0.70026 2.92846 -2.05268
-0.0765877 -3.18946 -0.283314
-1.51305 -3.47071 2.05498
0.880283 2.74831 -2.49855
-0.307621 -0.641254 -0.14735
1.61045 2.35457 -3.34973
0.851444 -0.595867 -0.248371
1.15319 -1.52304 -1.86003
-0.661976 2.24064 -0.957363
1.27067 -0.862675 2.07977
2.22171 -3.20312 0.940884
-1.59713 -0.367847 1.28695
3.46157 -3.51178 0.819965
-2.57252 -2.02111 0.0327415
1.81566 2.3947 -3.14405
2.00147 -0.980267 2.21424
-2.31425 -3.43717 -1.91716
-0.638752 0.94981 0.0953331
1.93942 -1.96434 -1.19956
-0.0481606 1.90921 1.94149
-2.64281 -0.355648 2.2739
2.64786 -2.20128 -2.1613
-0.0677071 -0.262882 -2.13755
-3.10231 -0.336849 0.376873
-3.24264 0.626163 -1.29577
2.50714 -1.62552 0.72768
-2.94555 -2.15959 1.82605
0.1535 -0.938305 -1.29149
2.95766 2.42666 1.2797
1.36361 0.298733 -0.878437
-0.429836 -2.81678 1.76963
0.944401 -2.45587 3.10389
2.81057 -3.34354 -0.69453
-0.879902 1.12429 1.97234
1.35986 1.55751 -1.46885
-0.447994 1.31858 0.909351
-2.6893 0.290188 2.2853
-0.445255 0.348354 -2.72036
-2.70109 -3.03368 3.24184
-0.0439949 2.9277 1.00504
-1.80989 0.755779 1.7238
-2.24154 3.32966 2.80346
0.067646 1.73853 3.46364
-2.02736 0.481754 1.05239
0.507511 3.13739 -1.45745
-2.11867 0.429897 3.39667
3.17035 2.98562 -0.380489
-3.08554 -3.23921 3.5034
-2.37924 0.85107 3.47344
1.62952 1.68551 -3.20546
-0.714031 -1.42583 1.08585
-1.97792 -0.232006 1.87998
-2.04981 1.53017 -0.448841
2.00631 -2.46953 3.03663
-2.98668 0.0386391 2.63848
3.41372 -3.5212 -0.998966
-0.502308 -2.63615 -0.548878
-1.06626 -3.00134 -0.252552
-0.128353 -2.55135 -3.46883
0.201717 -1.92687 2.75222
-2.77978 3.23819 -2.74096
2.10392 -1.01138 0.562565
-2.41227 1.54624 -1.4428
-2.91117 2.50015 0.0913887
2.73103 1.97092 -3.40551
-0.803471 1.98796 3.14808
2.18319 2.86615 -3.0236
-2.13671 -1.70351 -2.48941
-1.07001 1.76577 -2.03704
-2.38514 -1.89812 0.571629
-1.59057 1.30732 0.274281
1.97571 2.06307 3.26662
-2.53444 1.63145 0.74551
1.09249 2.75471 -0.289875
0.690701 -3.22381 -1.85449
0.303249 3.04275 -2.40206
0.815182 -1.29625 3.46781
1.32949 -2.6486 -1.77124
2.82799 -0.249783 2.99825
-0.135914 2.21574 -2.96722
-2.92898 3.36613 1.87563
-3.1979 -2.29179 1.40316
0.551334 3.21946 -1.03273
-3.27407 -3.38233 -2.34537
-1.12484 1.24569 -2.03365
-0.523182 -1.59914 -1.52643
-1.12272 2.23964 0.712849
0.10976 -1.01252 2.06797
0.572475 3.32069 -1.71735
1.14079 3.08133 3.50211
-0.05093 -1.12193 2.80089
-2.1833 -0.515377 3.51282
-0.212315 -0.709553 2.66493
0.977848 3.37732 -3.25293
3.47973 -2.96411 1.52829
-2.11405 -0.553417 -2.60638
2.13433 1.92712 2.63698
0.666767 -2.73114 -1.44289
1.95314 0.914158 -1.65773
1.3879 -2.0489 -2.64375
0.121441 3.09561 0.769855
0.0987282 -0.490856 3.2582
0.228123 0.329563 0.0131111
0.510723 3.12097 -0.676922
-2.02833 0.563282 -0.105495
-1.63099 -0.024334 2.34481
-1.52954 1.39715 0.204578
0.0312843 0.464138 1.00898
1.37727 -2.93644 -1.14421
3.26905 3.02041 0.342419
0.503376 0.872776 -0.629322
0.22604 -1.54132 1.88354
3.24287 1.56113 -1.85424
0.0304146 -1.74628 -2.26881
2.92864 1.76816 2.29819
2.2061 -2.7957 -1.79349
-1.12486 -0.891163 -3.46369
-3.18323 0.583012 0.535984
-0.791912 -2.92124 0.60326
2.55423 2.99157 0.0881386
-0.61063 2.19327 -1.57462
-2.79444 -0.838886 -0.112217
-0.113148 2.39087 -2.08662
1.15358 3.09821 0.170818
-0.615582 -0.938725 -2.12837
2.12646 -2.07743 -1.92035
2.19831 -3.40687 1.1922
-1.33306 -0.528011 -1.76032
2.80574 -0.175709 -0.677837
-0.173473 2.56791 -1.75362
1.78744 1.58661 -3.09588
-2.39212 -2.55956 -0.931049
-1.47503 -1.35028 -2.07571
2.23133 2.07211 -3.04485
-2.96439 -0.309849 -0.44804
-1.34921 3.07829 1.47824
3.37853 1.66922 1.60691
-1.44914 -0.199825 -2.45664
0.876743 2.00265 0.903187
2.12684 0.741039 -0.0644341
2.56649 -2.96797 -1.01336
-2.4319 1.82319 -0.569202
-1.50389 2.9666 1.61605
-0.0132103 -1.04396 -0.379185
2.54247 -2.87998 3.31469
0.48518 -2.30883 2.85744
-0.975262 0.345676 0.991123
0.103634 -0.343143 -2.74424
-2.06053 1.74325 2.26213
1.41057 -0.915539 -0.53236
3.40093 -2.85604 0.503391
-0.235622 2.71417 -1.20895
-2.68692 -3.25327 -1.3097
1.46943 -0.22163 0.650066
1.24858 2.76888 0.773808
0.0386772 1.244 2.46869
-2.50573 -0.806355 -0.721165
-2.24625 1.75392 2.47123
3.0196 -2.2098 1.14713
-1.5801 -0.734791 3.23531
2.45882 -2.39157 -2.15627
-1.81748 -3.05799 -2.97763
0.40836 -0.28989 -1.69537
-2.47711 1.02691 1.08672
1.30042 -1.571 -0.21175
0.233578 3.21312 -2.50328
3.04795 -0.815556 -0.30592
2.45182 0.214245 -2.61935
0.0634193 0.971714 -0.293613
-0.236805 0.455784 1.97532
1.14246 1.8794 2.58747
2.70036 1.80268 3.5332
-3.06236 3.52074 -0.292225
1.02808 -0.138248 -3.33266
-2.7192 0.388363 -1.36813
-2.21877 -1.84675 -1.69055
2.01085 2.92236 0.497616
2.92703 1.90296 -2.82367
-1.43393 0.819248 1.15176
-1.99415 -3.18468 -2.4598
-3.47403 1.11405 -3.11594
-3.47637 -1.27903 1.69046
0.235126 -2.64602 1.14386
0.438 -2.70465 -2.52993
-3.46566 1.85896 0.862156
-2.15249 2.14347 2.55094
2.88066 -2.61083 1.40595
3.0607 2.93555 0.241558
1.14511 1.79523 -2.47473
2.22084 -2.17424 -1.12387
2.10862 -1.16467 2.99389
0.263554 -1.63498 -2.35248
-2.65994 -0.575817 -0.994778
-1.65433 2.66303 -0.163898
2.74336 -0.434505 -1.37229
2.22695 -0.89645 -2.76435
-0.434452 1.48659 -2.37146
3.34264 0.2999 -2.97144
-2.19944 -0.174931 2.82751
0.212223 -2.56535 -2.88226
-0.861233 -3.41185 -1.04321
0.321819 2.2323 0.857342
2.86258 -0.571491 3.28524
0.163143 0.304104 2.41274
1.79457 2.65349 -1.08912
2.56576 1.3295 1.54997
-2.87304 0.020916 -0.498974
-2.84076 -3.48088 3.33646
3.52228 3.39729 0.0941811
-3.42733 -2.33768 0.532551
-0.935001 0.878262 0.656231
-3.14501 -3.51851 -0.178814
-3.3953 1.33885 2.25341
3.02116 0.134075 -1.50983
-1.60349 3.30094 -2.39187
3.48201 1.55998 2.94135
-0.0843086 1.05839 -1.10508
-0.815197 1.72088 -1.05043
2.81452 2.41565 -0.188679
0.811535 3.4024 1.00917
-2.59958 2.97879 -1.17991
0.757137 -1.02356 -1.16288
-1.0568 -0.63303 3.17968
1.96891 -1.02461 0.778225
3.11257 -2.0708 0.543629
2.51838 -0.138752 -0.431927
-1.12223 0.275913 -2.90907
0.831051 3.19532 1.81553
-2.89316 -1.15541 0.695652
2.11973 -1.40824 0.0307045
-2.59571 2.93883 0.473965
-0.754879 3.34297 2.98594
-0.110729 1.03276 -1.71444
-2.86804 3.51149 0.264675
1.21112 1.94487 2.72941
-3.28815 1.99009 -1.47669
-3.1935 0.44112 2.33476
2.15757 2.85442 1.99455
-0.21413 0.618122 -2.22821
3.35211 1.26049 -0.10091
0.290539 -0.687122 -1.22943
-0.790867 0.252697 -1.42199
1.03023 -3.03772 3.1463
-1.24063 0.387089 -2.94881
-2.57856 0.52277 1.99977
-0.519718 -2.33345 0.454327
-1.25231 -1.08607 -1.64009
-3.32511 -1.27585 -2.85302
-2.01778 -2.18563 1.30064
0.885029 1.13577 -0.506214
3.19114 0.952343 2.3422
-1.29821 -1.82447 -0.472454
-2.21926 0.9202 0.0253639
-2.16435 -0.585102 3.41617
-2.70011 1.17799 -0.128407
0.757938 2.13496 1.07367
2.12157 -1.92029 2.99132
-3.26698 -0.16888 -0.820065
1.03738 1.04155 -0.00197983
-3.00437 2.5593 -2.40174
3.34155 0.908794 2.08613
-0.666439 0.0325813 -3.27387
2.36264 1.73809 2.18187
1.71147 -3.0167 -2.47058
-1.95247 -2.17733 1.71112
2.12492 -1.87371 -0.221264
2.58071 3.41976 0.862164
-2.30671 2.00579 -1.84225
1.22685 1.74253 2.73483
2.36064 -0.287434 1.22678
0.379421 -0.288082 -1.39996
1.64109 -0.482067 2.63634
-0.244396 1.85521 0.307087
0.288738 0.682323 0.294109
-2.06749 -1.14174 2.65232
1.24678 -0.0904961 -2.75693
-1.42659 -0.50111 -3.40452
0.266697 -1.98775 2.60499
-1.06582 -0.758923 0.811993
-2.37458 3.47165 -3.01097
-0.770817 1.76493 0.704662
-1.67001 -1.39118 -3.31294
3.17261 3.25363 3.07781
-0.600628 -1.05812 -0.307217
-1.48384 2.76616 2.55476
-0.237057 -2.83686 -1.07127
-0.106045 1.41364 1.43134
-1.03659 -2.54848 2.97912
-3.29194 0.721935 -1.84715
-3.2992 -2.87942 -1.91104
0.940998 -1.71846 2.85762
1.63178 1.04625 -1.0691
1.17405 3.37996 -1.88282
-3.20051 2.48523 1.5946
2.88978 -1.65094 0.293407
-0.717022 0.868938 1.99208
-3.35303 -2.90365 -0.661633
-2.90944 0.525837 -0.206394
-1.22106 3.49297 -2.01999
0.871624 3.20475 -1.89569
-0.338108 2.90927 -0.0786247
2.12833 1.31473 -3.09972
-2.29002 -1.12084 3.28396
2.84011 -3.48232 1.70184
-0.402012 -3.1473 -3.01645
-2.47728 -3.32486 1.38803
0.864803 -1.03817 2.01991
-2.87712 -0.855663 -1.5216
-1.36158 -0.229572 -2.09598
-0.253559 2.55309 -2.42677
3.20335 -0.642635 -2.05304
-2.96372 2.55479 2.26542
3.32396 1.61577 -2.39096
2.49027 2.32947 -2.86956
3.00936 1.10224 -3.01313
0.861851 -3.36712 -2.80246
-1.18559 -1.84069 -0.83691
0.296528 2.55965 2.84296
2.73608 3.21806 -1.45396
3.31303 -1.21087 -2.96822
-2.80735 2.0711 -0.0753212
2.46178 2.2071 -0.587879
-3.46471 2.2471 -3.03946
-3.33055 2.03553 2.82555
-2.33996 0.458454 0.392254
-1.60689 -0.0677223 0.560665
2.09173 -3.27322 2.25551
0.867344 -1.45509 0.747814
2.94892 3.37697 1.43034
-2.55484 2.0457 3.22319
0.373562 1.8232 1.75875
3.32122 3.01957 -0.10149
-3.25377 1.94581 -1.92173
2.5755 2.48482 -2.42173
-0.567783 2.68981 1.04044
-3.07447 -3.18569 -2.09463
2.18476 -0.78886 -2.36413
0.397045 -2.76448 0.716312
-2.23996 1.6384 0.0259361
-2.55231 0.51997 -1.46389
2.21016 1.50067 3.36303
-0.958675 -0.661304 2.84706
0.655125 -1.40744 1.72552
1.76892 -0.65749 0.674809
-0.257984 -1.61753 -0.170918
1.18292 1.81841 0.647114
2.35432 2.27948 2.86197
-0.464901 0.396893 -3.43804
2.56475 -2.7416 1.20408
-2.43467 -1.44603 -1.81148
-2.139 -0.462803 -3.37816
-2.82747 -1.31999 -0.503933
2.43358 1.25687 1.09235
-0.958958 -1.62354 -3.10067
2.87384 -2.92196 -0.714481
-0.014576 0.355587 -2.96342
-0.688137 -1.99703 2.85159
-1.12246 3.36101 -0.287052
3.08535 0.360577 0.975071
-2.26167 -1.14202 3.06458
-2.1043 0.958843 -0.465572
0.395489 1.82357 1.74997
-1.0477 2.53163 -0.52869
-1.14465 1.89786 1.3833
1.14459 -2.59663 1.46506
1.7167 3.28093 -1.71489
0.500942 -0.269176 -0.708195
-2.85346 2.04641 0.117283
1.65715 -3.1434 -3.05767
0.654377 3.47748 -1.19597
-3.34673 -1.85154 3.2984
1.93878 -0.4203 1.05462
-2.65726 -3.09216 1.05072
2.72976 -1.13614 -1.11877
0.65929 1.25475 -0.711681
3.47994 -0.668011 0.0337181
-0.76379 -2.48684 2.76826
2.88903 2.01782 1.74732
2.83507 2.69989 2.13945
-0.896435 0.821507 2.54959
-1.66538 -2.59146 -2.83748
3.39296 -1.40266 -0.254063
0.376331 -3.53123 -0.342503
2.79309 -1.65296 2.0569
-1.98594 -2.99054 0.244297
1.0515 1.20428 3.11182
1.28423 0.616871 -3.44237
-1.0358 -3.21427 2.11098
-2.9637 2.67848 1.27534
3.12143 2.97802 -1.9705
3.28766 -1.98577 -0.026432
-0.0337486 -0.647427 2.10644
3.15928 -0.789997 1.57893
2.68064 3.12187 3.46151
-0.610592 1.84761 3.47468
-1.03431 -3.20567 2.14343
-1.47296 1.38137 -0.775234
-1.89751 -1.40175 -0.453968
2.91336 1.09798 -0.842838
-1.59267 2.66982 -1.40036
1.38462 1.7239 -0.382404
-0.57629 2.47602 1.97389
-2.53289 -1.09326 -1.88346
-2.13874 -1.46951 -2.82894
-2.19959 -2.85621 3.0224
2.94756 0.0687294 3.35226
-0.363209 2.03814 0.666279
2.18654 -1.97035 -3.27101
-2.72364 -0.86414 0.830692
-0.588467 -1.48631 -0.0350227
2.03285 -0.0752602 -1.37848
0.939388 -2.22618 -2.9698
2.05965 0.201252 -0.527523
2.76625 2.20389 1.00669
1.72129 3.06887 2.15419
1.00621 -2.66625 -1.84443
-0.863049 -2.78604 -2.87363
-0.598522 -0.145527 -1.84026
3.23589 -2.02633 0.831135
0.133518 -0.214443 2.88036
2.29058 2.20081 -0.262249
2.85631 1.69812 0.515293
-1.73856 -1.42984 -1.81899
2.27185 -2.90572 3.38862
0.890507 2.86425 2.92196
-3.48945 1.51819 3.25943
-2.82755 -1.01114 -3.06214
-1.13227 1.66135 0.327869
3.23439 -3.00452 2.83707
2.04741 -2.30416 -0.912907
-1.75038 1.36489 -2.24763
3.30045 0.11993 2.45421
-2.58589 -1.09111 -3.04297
-2.7328 0.705868 -2.94497
3.19288 -0.557819 -3.14808
2.91678 -2.73466 1.90565
-3.2127 -3.22039 -2.64102
0.118885 -3.04422 -3.5152
-1.11139 -1.17278 -3.516
0.97942 -2.00573 -2.28463
2.73551 -3.49386 2.61579
1.12237 -1.24052 -1.33163
2.61493 -2.00742 1.1128
3.20549 -1.05777 -1.71687
-3.47812 -0.786854 1.72903
1.43126 -1.12951 1.99809
3.32577 -2.28007 2.31323
2.81429 -2.48906 2.80454
2.83382 2.16536 -1.90377
-2.51816 -2.48156 -0.373974
-3.43791 3.03339 -0.864117
-0.76582 1.70155 1.4309
-3.18856 -0.711613 2.95901
-0.901707 -1.63221 -2.16611
-3.24002 -1.49407 0.582569
2.2936 -1.96846 2.45678
1.07129 -3.07274 -2.35882
-0.191517 3.25675 -1.31234
1.44024 2.00369 -2.68251
-3.00108 0.770161 -1.16036
-0.329662 1.78753 -2.19432
-1.4343 2.35334 3.04277
-2.54264 -1.94801 -1.73619
-0.173214 -2.13285 1.16713
3.41307 0.50098 2.67678
3.33432 0.79649 -2.82722
-2.56003 -0.977261 -2.89624
-0.868656 -3.4415 3.36422
0.452549 -0.0974846 1.83238
2.82772 -2.72459 0.0670052
-3.43394 -2.19014 -2.21281
2.61255 2.01574 3.14425
-2.65918 -3.48591 -2.33929
1.51166 -2.49302 -0.468418
0.652905 0.33749 -3.50297
1.8294 1.21503 1.29724
2.46869 0.482006 -3.21556
3.29738 1.45751 -2.65334
1.06241 -3.4785 0.252895
-2.40612 0.509586 2.06384
-0.615208 -0.730038 2.87742
-1.00649 -0.628445 1.35762
0.65794 -1.55143 0.875431
-3.34601 -0.206898 2.38614
-3.31345 -2.23077 -0.811909
0.987507 2.95767 3.40684
2.30748 1.25154 0.353313
2.65786 -0.347118 -2.25653
-0.624775 -0.58527 -1.19949
-2.09647 -2.05839 2.84563
-1.75458 -1.46079 -0.951756
2.60676 0.927723 1.95533
0.946659 -2.6143 -2.66345
-0.20274 1.57917 0.133373
1.98907 1.7687 1.43814
2.32856 1.45897 0.328457
-1.38547 -0.620876 -2.48735
0.893536 -1.84893 1.70106
2.69777 -3.25841 -2.95156
1.47605 -0.347652 -2.00623
-3.01124 1.5596 1.06852
2.94781 3.34055 -1.5393
-3.25117 1.87996 -1.14988
0.417736 -1.24073 -3.10624
-2.21148 1.56025 1.66618
2.65252 1.01379 0.0577965
-3.37037 -0.724995 2.97245
1.33441 1.42507 -2.94382
2.91838 -1.74874 -2.6667
-3.15519 -2.58651 0.521183
1.44886 2.89325 -1.45475
-3.15779 3.41755 -2.18155
-1.30394 2.82982 -3.36894
-0.40646 2.58237 -1.07413
-2.27581 -1.06724 -2.04941
1.31752 1.25682 1.9681
0.222622 -0.158016 -2.29243
0.814335 -0.52467 2.13636
1.68317 -1.7258 -2.14792
-0.862995 -2.87476 -1.73072
0.68597 -2.49442 -2.373
3.03995 2.95816 -2.0228
3.20655 2.80409 -3.26033
-1.93493 -2.03539 3.32576
-0.448811 1.09369 -1.27701
-2.01625 2.82159 2.98352
-1.30496 0.0717583 -1.24184
-1.70414 -2.24115 2.76902
-0.848339 2.10872 -3.02412
0.956478 0.724537 -2.36335
2.5872 3.39708 -1.85405
-2.97113 0.0156975 -2.43142
-2.69593 -0.479885 3.37638
-2.9057 -1.34069 -1.19454
-0.178989 0.7281 2.90287
-1.26281 -3.25624 1.65711
2.03088 -1.26877 -0.806667
1.26437 0.429989 -0.0441017
1.77578 2.26139 -2.00274
2.41616 -2.6543 1.72552
-2.97342 2.83771 1.58706
-1.40113 1.88938 -0.932774
-1.56028 1.92196 1.59106
0.248905 2.76157 -2.81697
0.0844231 -3.21148 1.44666
-1.794 -0.386745 1.19413
0.403049 1.88597 2.92908
-3.17659 0.381321 0.823536
-1.1756 -2.42166 -0.982426
-2.98561 2.88966 0.898808
2.60517 1.23847 0.200985
-2.39495 2.80058 -1.97699
2.73164 -2.6679 3.48051
2.91838 -0.692638 2.17473
