ply
format ascii 1.0 
element vertex 1832
property float32 x
property float32 y
property float32 z
end_header
-0.368374 3.10501 -1.24543
2.78163 -2.96511 -0.244686
2.26716 1.17337 -1.07313
-2.71179 -0.422626 -0.267155
2.24089 -3.26609 -1.6314
-0.656361 0.758648 2.49465
2.50119 -3.22622 3.51016
-1.45576 -3.41092 0.893322
0.0725136 2.79737 -1.55587
-2.10911 2.95635 2.47594
1.181 -0.215916 1.51361
-2.59922 2.95124 2.08403
0.331364 1.66552 0.190052
3.06793 0.397152 3.30296
-1.09901 2.2209 -3.49867
-2.1399 0.394436 1.2637
-2.16527 -2.79746 1.0412
1.73177 2.70745 1.16582
-2.89145 -2.81565 1.42765
2.58821 0.792393 0.848469
0.56628 2.687 -3.4348
-0.417042 0.332462 3.05198
3.30854 0.736958 1.18197
3.07597 -2.46721 -0.956409
-3.49005 -1.93482 -2.80286
0.77737 -0.0301094 1.12711
-1.71696 1.36553 1.33337
2.98439 -3.33528 -0.0265236
0.3447 1.40021 1.69336
-1.87418 2.04429 -1.5816
-1.77344 1.09697 -2.43013
-1.78881 -1.4041 0.906048
2.9287 1.71439 -0.892529
-2.09506 1.4874 -0.356022
-1.8942 0.496021 0.712879
3.23663 0.541508 -2.85276
1.03447 -2.21666 3.0483
-2.05941 -0.398083 2.71674
3.16948 -0.481037 0.0496025
-2.47947 2.86738 -0.441639
-0.374065 -2.54233 -3.41202
-3.53537 -0.312054 -1.28059
-1.42418 1.43467 3.43752
2.75534 0.296024 1.38939
-0.599133 2.7365 -0.650127
0.551823 -3.22505 2.8951
-0.467228 -3.52395 -1.85709
-1.28602 1.51423 0.748547
1.7673 2.99036 3.27123
-2.20987 2.09249 -3.46799
-1.61818 2.61675 -3.0066
0.104954 -1.29285 -0.314938
1.00694 -0.824497 -2.94761
-1.67102 1.28686 1.88395
1.21438 -0.0251503 0.553097
1.04213 -3.15982 0.863583
2.18876 0.92754 1.87516
-0.598225 -3.07522 -0.146137
-0.394344 -1.35752 -1.22313
-0.858616 -3.12576 -3.19798
-0.8615 -1.33191 2.9543
3.3591 0.0536308 -1.4059
-3.12405 -3.37695 1.30514
1.76361 1.16552 -0.943531
-1.21882 -3.04103 -3.50422
-2.89077 1.17707 -3.1285
1.98811 -1.84815 0.802761
-1.69356 -3.19492 0.731258
0.0870323 0.210575 2.37745
0.424587 3.35176 2.25541
-0.156643 -1.5742 -2.61203
1.973 1.09983 0.445316
-0.789211 0.391582 1.6039
2.80279 1.80307 -1.29792
2.83411 -0.500668 -1.33524
2.70933 2.81604 -3.22552
-0.555256 3.4608 -1.53814
-3.35953 1.91338 -0.729336
2.02164 3.22354 3.01677
0.74152 -0.224964 2.30119
2.66502 3.20334 -2.80854
-0.957012 -1.02065 1.82682
-3.42046 -2.115 -0.317127
-0.714664 0.631321 -2.58141
1.48563 -0.101421 0.453457
1.26383 -1.33466 -0.266033
-3.34166 -2.69268 -0.872578
-0.535458 -0.244213 -3.02655
-1.58603 -0.600025 3.20071
-2.82038 -2.11392 -0.559788
-2.6252 3.16314 -1.42379
2.73716 1.76081 2.09109
-1.64732 -2.73174 3.51162
-1.22501 -1.61666 0.60741
3.23217 1.2042 -2.56136
-1.10122 -1.37751 -0.8923
2.56174 -3.18103 0.418743
2.53891 -2.98716 -3.361
3.20409 -0.518894 0.0426903
-1.42305 0.898792 1.46431
1.68869 1.08213 1.09191
-0.287563 1.99247 -1.21463
-0.311474 0.662273 0.589161
3.29966 3.01867 1.97622
-3.32905 -1.74187 -0.886929
-0.217632 -2.04524 0.739277
-3.33442 1.38908 1.09378
3.37936 -0.116528 1.11034
-0.113483 -1.64496 -2.94409
-1.18471 -1.97641 0.958424
2.91092 0.604267 -1.49498
-0.839252 -1.77439 -3.03804
2.75363 1.47358 1.62795
1.19431 -2.90524 1.11109
3.3111 3.39814 2.90475
0.514843 -2.46645 -2.20784
-0.926914 0.319637 2.71678
-3.35211 0.520748 -1.4671
-2.29248 -0.16724 0.423473
1.66967 -3.34807 2.45079
-2.36084 -1.52906 -0.48048
-2.39517 -2.15368 1.28067
2.76831 0.0107841 -1.3131
0.343868 -0.771122 -0.682804
0.713085 3.42691 -0.820202
2.04078 3.20247 -0.282932
0.690212 1.18178 -3.49883
2.22683 3.25859 0.0256386
-0.885227 2.9102 -3.20895
-2.50179 -3.44963 -3.02149
0.553265 2.75557 -1.01502
-2.23342 -3.1408 -0.164982
-0.0109825 -2.00044 -2.68973
2.84175 -2.29947 -0.457134
-1.0458 1.57993 0.434238
2.2068 -1.77433 -0.430637
2.71169 -3.26908 -3.3162
-0.798206 0.424847 2.9461
-0.471622 -0.883854 3.32077
-0.489391 2.23464 3.40667
2.03112 3.26838 2.62671
-1.20121 0.754299 2.48963
-0.355404 2.05642 -2.04634
2.19118 -1.02192 -0.810284
-1.44193 -2.24752 -3.2977
2.66297 0.242214 -0.536503
2.35048 -0.618336 -0.801868
2.76105 -1.974 -2.91256
2.54628 0.231518 -0.79269
1.88561 -3.30745 -2.09359
1.97679 -0.261311 -1.89255
0.930882 -1.29753 2.39728
1.88826 1.03679 0.386349
-2.98938 -3.38596 2.36815
-2.28336 2.34076 -2.4149
0.715672 -1.63671 0.831036
3.44934 -3.04109 -3.32283
-3.53057 2.31311 -1.7613
0.212276 1.53863 2.47394
1.12241 0.0175667 2.70202
2.76539 -0.632359 -1.09482
1.09533 -2.72292 1.14318
-1.58567 1.21168 -1.35556
-2.75306 0.032589 -1.20599
-2.16423 0.0469322 -1.93258
3.20234 1.29911 -0.0337563
2.88322 -2.05257 -0.071125
-1.94542 -1.13877 -1.29354
-3.00702 -1.1338 -2.29045
3.23054 2.0822 0.730839
-1.39981 0.669071 3.1022
-3.32399 -0.632885 -3.15625
-1.14402 -2.60491 2.05915
1.65371 -0.655048 -1.97561
3.25666 -0.404385 1.60685
-0.84444 1.96692 -0.161388
2.61997 1.1019 1.32158
-2.20911 0.449589 -3.35273
-1.49584 2.0397 -0.482807
-3.30053 2.56822 -2.46796
2.80539 2.26323 1.73664
-3.41822 -2.20394 -1.96359
2.17646 -1.99239 -1.03296
-3.33468 -0.132687 1.31571
1.27589 -2.01451 -3.15602
-2.42103 -2.82519 1.81461
3.43608 -0.134098 -0.619022
-3.45218 -1.04966 -2.70497
-0.931271 0.744946 2.33845
1.1363 2.78464 2.37114
-1.1944 2.48783 0.567013
0.377544 2.75768 1.89861
2.3483 2.875 2.90994
-0.403339 0.984112 0.241718
0.444355 0.653149 1.23093
-1.27657 -1.60649 2.94127
2.63994 0.508007 -0.728359
2.93869 0.40855 2.75751
1.74161 -0.0399132 -0.564892
0.577213 3.03254 -1.31578
-1.92312 0.633305 -1.89531
2.97921 2.44262 -3.20498
3.35361 -0.247181 2.67374
-0.472019 -1.96623 0.122318
-2.77662 2.16597 -2.76007
-3.37088 -0.925213 -1.36284
-0.0955238 0.801937 2.6807
-1.40536 -0.0936546 -0.9781
1.56528 -0.690495 3.51752
-3.28604 -2.01623 2.48271
-2.17762 1.5647 -0.951336
-1.84706 3.17711 -2.04425
-2.70886 3.08897 1.24411
0.417179 2.90705 -3.25766
0.660831 -1.63232 1.91203
-3.23755 -0.873409 -3.08053
2.97869 -0.240574 1.25694
-0.534946 3.19944 -1.90406
-1.08477 -1.74146 0.409161
-2.1376 3.35936 1.92846
0.446598 3.07704 0.95763
1.40607 -2.16793 0.0673943
0.114643 -0.479465 -0.379169
-0.139294 0.815395 -1.53947
-2.29461 -2.30296 0.363743
-2.37143 2.89341 3.49405
2.42105 2.65958 -0.813869
3.5207 2.10273 -1.14997
1.39433 -2.49956 0.112293
-0.744556 -0.580616 -0.595699
3.21679 0.285503 -1.0542
0.748653 -2.80343 -0.21841
3.3732 2.60636 -3.23341
-0.701801 -1.34635 0.585705
2.66566 2.04989 1.81828
2.09237 2.759 0.644337
-2.25704 -3.14796 -0.231617
0.128529 2.27681 -1.19623
3.24454 3.26197 -0.692074
-0.886692 0.588955 3.26284
2.06283 2.84812 0.0128136
-1.69111 3.52938 1.2131
-1.9208 0.210682 0.283924
2.20044 0.0483513 2.47311
0.951366 2.35027 0.455654
-2.47165 1.94858 -0.320881
1.30046 0.505413 -0.465122
-3.43131 2.78391 -1.72385
-1.11966 -1.15491 -2.52922
-1.39235 -0.977718 1.59526
2.62418 1.67112 1.90785
0.301746 0.198421 1.36988
-3.48168 3.04284 -1.95498
2.52697 -2.41349 1.0971
-0.552914 -3.28041 0.380016
2.12992 1.20649 -1.20694
-2.40255 2.27038 2.83401
-0.590862 0.035305 1.55057
0.883633 -0.392284 -2.67169
-1.05664 3.02359 -0.113873
-3.21614 -1.9043 -1.97828
1.15746 -3.34747 2.22386
2.73802 0.489811 1.19935
1.29958 0.543667 1.78958
-1.85594 -0.996716 2.0447
-0.0591545 1.45409 -0.284336
-1.29249 0.048481 -0.549488
-2.27745 1.18147 2.48954
-1.94542 -2.47674 -0.438282
1.47624 1.94242 -0.95023
2.50167 -3.18156 0.149189
0.658184 -2.39398 1.33725
-1.678 2.29902 -2.24028
-2.42395 2.5015 2.83892
2.62447 -0.26627 -1.69333
-0.1954 0.881512 -2.77478
2.25883 -2.71318 0.277424
0.681019 -0.470135 -1.60846
-3.2928 0.25613 -0.549664
-1.23931 1.31443 -2.67459
3.44542 -1.27668 -2.32061
1.24714 -1.31054 -1.17906
2.01057 2.35136 -1.41558
1.31395 -1.86217 -2.98143
-3.44673 -1.28241 0.287838
-3.21778 -2.19347 -2.898
0.0633583 0.614849 -2.07564
1.99044 -1.19367 0.457943
-2.09476 -3.04818 -2.35328
-1.76563 -2.80545 2.49669
0.449291 0.49078 -1.84735
2.80577 -0.131153 -0.154171
-2.67716 -2.95137 -1.33834
-2.12305 2.59474 0.335018
1.16851 1.37316 2.05633
1.80604 0.930149 -2.67267
2.73412 1.2479 0.945896
0.656528 -2.75609 -2.78331
1.30697 -3.30119 -2.29596
-0.263691 -2.39223 -1.56587
1.4245 0.377674 1.92863
-2.26521 -2.70857 -1.73806
0.93198 3.10092 -1.15389
-2.80035 -2.11177 -1.09468
-3.27955 -1.23111 3.28219
-2.94851 -2.59813 0.676807
1.53292 2.74344 -2.14264
2.28515 2.94203 -1.3632
3.52473 -0.468792 -1.66067
-1.10849 -2.69735 0.482632
-2.71539 0.042675 -2.67523
-0.449726 -1.60018 -2.38008
1.93192 -0.861668 -2.81469
-3.23011 3.07403 -1.92275
-3.48346 -2.26185 1.38168
0.197071 -2.53769 1.78727
1.05815 -1.95066 0.995174
-3.3724 2.58599 0.401669
-1.49754 2.33561 2.9366
1.98881 1.79299 -3.29629
2.3173 -2.85103 0.750103
3.47276 -1.5627 2.68546
-2.40928 1.52311 -2.24356
-1.32831 -0.612324 -1.70506
3.05709 0.693096 -0.431377
1.30882 0.745174 0.566471
-0.231541 -2.1251 1.61953
3.17385 1.93676 0.669987
-3.49616 2.0999 -1.06176
3.28234 -2.46499 -1.8043
-0.0349083 2.52754 -1.65162
-1.4168 2.30931 0.321217
0.875179 1.71472 -2.22303
2.70565 2.84097 1.70018
-1.79307 -1.55469 -1.14225
1.77712 -2.03314 2.60664
-0.138882 3.2794 -3.054
3.53482 -1.01949 2.88649
-0.0624657 -1.38118 0.919033
1.13695 -1.87362 1.98957
3.02087 -1.65863 1.44976
0.806553 1.842 0.223537
1.58725 -2.64215 -2.12909
-0.248104 1.76857 -1.82366
2.14518 0.938686 -0.37463
1.68447 2.68115 0.595951
2.166 0.922733 0.339817
0.985142 -3.2835 2.85586
-0.631359 -3.28421 -1.59266
-2.70913 -0.342953 -0.462559
2.27617 -2.74154 1.41435
-1.56765 -2.2562 0.188999
0.838795 1.55407 1.08239
2.01886 -0.394215 -0.684582
-1.89131 -3.17785 3.25782
2.24018 1.97104 1.87162
-0.487354 0.119976 -1.27299
-1.16703 -0.781368 -1.02095
0.24403 -3.33176 -1.30144
-2.75406 -0.427586 2.89114
1.66401 0.867001 -3.38593
-1.68253 -0.392368 -2.10659
2.40358 2.0437 2.4512
-2.34835 -0.653034 -0.47855
-2.62606 -2.70153 -0.652683
2.78109 -1.0573 -2.21717
-2.02743 -2.88447 1.90652
-0.0446663 -0.368107 -2.41038
3.18943 2.46859 -2.20661
2.54503 -0.822918 1.36953
2.69464 -0.573261 -1.83082
-2.47931 -1.44479 0.780529
3.50743 -0.1236 -0.7113
-1.03847 -0.787373 1.63939
1.84438 0.399807 2.47339
-3.44014 1.77746 -2.65126
2.00191 0.491207 -1.53201
3.12706 2.46749 1.63542
-3.14689 -1.11271 0.56847
1.22635 -1.45881 -3.3218
2.93106 -2.98113 -0.359524
1.17606 -3.35384 1.19941
3.46848 -2.82943 -1.99154
2.57233 -2.85753 0.756618
1.51019 0.107716 -2.37911
2.86265 -2.11525 2.40207
-2.20489 -2.01986 0.357746
2.96606 2.98577 -0.710293
0.467182 2.04548 1.71254
0.68092 2.90231 -2.81363
-3.21414 0.0613136 -2.79103
1.98899 0.456844 -2.60934
3.53298 -2.43444 -1.90323
0.754063 -3.03331 -0.757046
1.37867 3.07455 2.35439
1.24521 1.51739 -3.2964
-1.93258 0.844509 -0.780727
0.892666 2.17515 -1.86231
-1.46215 1.07386 -2.35236
-1.27205 -1.99449 -2.98558
-0.0593681 2.22197 0.611263
0.866825 3.01155 -2.99924
2.96731 1.465 -2.42997
-1.85708 1.46244 -0.927746
-3.03823 -1.85084 -1.92054
-2.79909 3.06337 3.13238
-0.576099 0.773045 -0.0904579
2.09713 1.84419 -1.45084
2.74849 -1.33049 -2.91251
3.29844 1.21108 -1.90328
-0.15765 3.47456 -2.21685
0.846828 -0.652157 -2.74083
1.9524 -2.85268 1.72789
-3.0427 -3.4209 -0.345203
-0.427708 -2.27427 1.33949
-1.36267 -1.77696 0.335506
3.0824 -1.57233 -1.42698
-2.43579 1.85529 3.42093
-2.34458 0.416882 -0.445103
0.287678 -0.901981 -2.76956
1.07455 -1.13908 -3.36235
1.86925 1.70699 0.52103
-0.470211 -0.981716 1.20388
2.72012 -2.09667 0.786701
-0.00774002 -1.60383 1.51616
-3.20777 0.972179 2.74292
-1.63103 -2.92603 -2.36495
-0.74564 3.16009 2.49406
2.34479 -3.34304 -1.15641
2.57895 -1.15209 1.47715
2.75214 2.13931 3.34179
-0.794178 -0.321674 2.51324
3.41343 -2.51977 -2.00401
0.132778 0.545551 -0.565144
-1.8866 -0.801678 1.83474
-2.67922 2.72612 -0.728611
-1.04045 2.52207 -0.650921
-2.08192 -1.6445 -1.02636
1.29721 0.613583 -0.365688
-0.761181 -1.10897 2.01776
0.0450706 -2.06556 0.0897179
-1.50904 -3.38076 3.30358
0.0224876 -0.171223 -2.75173
3.46106 -0.293331 0.797543
1.76027 -2.69609 3.5314
-3.03569 -1.04715 2.19017
0.848927 0.277348 0.644886
2.82628 2.24062 2.00411
-1.07494 -3.37683 -0.917843
-3.12453 0.924091 1.50872
0.500721 -2.37262 2.44688
0.268764 0.676167 3.06984
0.520756 2.70266 -0.636921
-2.21724 -1.3422 2.60528
-2.75319 -1.94848 2.91291
2.4407 2.81551 -1.20159
0.550053 -2.75571 2.61129
-0.981373 1.62875 0.784565
2.1045 0.387684 0.943264
-0.454128 -3.22279 -0.668179
-0.542782 -2.81179 -0.0370827
-1.54029 1.69265 -3.42826
1.35832 -1.57412 2.27812
-0.103748 2.95036 -2.59961
0.273632 -3.33422 -0.0125618
2.07576 -1.55188 -0.732586
0.619709 -3.17852 -0.484577
-2.13126 0.375248 -2.92318
2.34754 -3.14166 2.00004
-2.38799 1.96656 2.31279
0.578648 -2.0231 2.50472
0.685917 0.43784 0.661839
-0.571499 2.43308 3.09144
0.832607 0.255863 2.50627
-3.2473 -2.38342 2.70758
-0.97617 0.893932 -2.91165
3.07479 -0.565838 -1.55464
-3.38392 -3.48166 2.35614
1.61984 -2.07739 2.2182
0.397091 3.27387 0.649235
-0.165539 -1.64965 2.62986
3.50002 1.93271 -0.467838
3.05593 -0.448719 -0.570293
1.49485 2.51532 3.2211
1.66689 -0.719425 -3.22966
1.75896 -0.963009 1.1998
3.20804 2.59636 -2.90157
2.49684 1.60379 -3.37951
0.647694 1.22359 -2.45318
-1.77042 0.307896 -1.71485
-2.6761 -3.36236 -0.360783
0.391598 -0.524181 -1.9636
3.35684 0.440304 1.12321
-3.02866 -0.571117 0.571178
-2.72279 -1.6118 2.85547
2.48073 3.0588 -0.64307
2.58288 0.750416 -2.11406
-3.33216 1.42292 2.49345
-2.24981 0.384228 -0.350307
-0.960941 -3.03543 2.96131
2.21381 -1.27031 -2.93659
-2.81714 -0.410877 -0.45705
1.8416 -2.55481 2.98697
-1.65457 -2.73351 -0.119678
-1.33463 -2.22663 1.27224
1.02602 -0.945705 0.795506
2.44749 -2.00051 -1.98961
0.873592 -2.95316 2.43703
-3.01225 -3.2816 -1.24609
-2.58648 -1.5277 0.254017
-2.51934 1.04689 2.51924
0.0273247 0.72517 -0.427174
0.478764 1.44356 0.553547
3.3628 -0.782185 0.823757
1.09951 1.56697 3.13266
-2.17234 -3.3032 -1.8804
-1.15823 0.726543 -0.345371
-1.78855 -0.893314 -0.294811
0.500896 3.51581 0.427303
-3.31244 3.50728 2.43514
-3.32873 -2.61473 -0.0535011
-0.752186 -2.13035 -3.39568
2.80508 2.43251 1.0516
0.0933037 -1.15608 -2.79793
-0.841389 -1.32881 2.30457
0.281933 2.77442 2.00509
3.4721 -2.93345 -0.803898
0.109936 -1.08796 1.30651
-2.99829 0.659023 1.28679
2.97238 -1.90743 0.726719
-1.14847 -1.68433 2.11571
-0.0086174 -2.00934 3.52089
-3.02436 0.242191 1.88605
-2.28676 -0.488262 -2.80556
-3.51773 -3.46231 -1.13065
1.49109 -1.29998 -1.89177
-3.38016 3.51749 -1.8215
1.46188 2.92224 1.62607
-1.31868 -0.503361 -1.78225
-3.1275 -0.497936 -0.685963
2.52375 -1.59291 2.16524
1.97729 1.79416 3.15962
0.795994 -2.28181 0.866276
1.52597 -1.77064 -3.15752
-2.14022 -0.0536842 3.45496
-1.02826 -0.567692 -0.38055
1.68577 -1.61214 -0.398594
-0.755505 -1.45677 -1.01189
0.997776 -2.53042 2.48847
-2.75554 -0.313572 -1.545
2.94524 -0.437351 1.39762
2.03751 -1.98095 -0.343754
-0.631748 -2.5392 0.378155
0.214451 1.79233 2.14305
0.133877 -0.74905 -1.97799
3.28886 0.114452 1.98986
-1.17708 -3.44934 -3.15782
2.34656 1.77196 -1.07905
1.2995 -2.51908 -0.605755
2.75821 1.48242 3.08439
0.620304 2.26242 -0.888493
3.28027 1.14031 1.13427
0.12289 0.642284 2.13061
-0.801411 3.01426 -0.144405
0.756138 -0.306828 2.11026
-0.789539 -2.70848 -0.842632
-0.943638 -3.48697 -0.756443
2.51284 -0.128521 -3.05183
-2.16026 -1.84931 -2.56719
-2.6114 2.98572 1.91895
0.503826 2.2084 1.11402
-1.89743 -0.238644 -1.28121
3.2369 -0.493908 2.3648
-0.974857 -3.43837 2.3117
-2.93194 -0.704243 -1.53066
-0.23904 3.05561 -1.23542
2.54005 -0.269459 -0.186863
2.49194 2.32244 3.22015
3.46029 0.767933 -2.16469
2.8437 2.61139 -3.24632
0.422184 3.53553 1.9658
2.1447 -0.0279961 -1.80838
1.44214 1.07829 2.23325
0.218311 0.247837 2.33042
1.69137 2.2767 -2.44117
-2.07959 -3.19078 -2.92109
1.26908 0.105717 -0.186832
0.421886 -0.421581 -0.931744
1.26091 -1.99699 2.83991
1.55013 -1.07224 1.91577
-0.551418 -2.29589 2.38395
2.17574 1.13002 -1.7114
0.34164 -0.792637 -3.16864
-0.863476 -3.41784 0.0829124
-0.30093 -0.195812 -0.175922
-0.218304 -1.03997 0.168835
-2.94067 -0.115841 3.27827
-0.868694 -2.9141 -1.21066
-1.56432 1.04332 1.32788
-2.7159 -1.76312 3.25937
2.67176 2.79073 -3.10387
-2.57517 -1.29622 1.56168
-2.74009 -2.65602 -3.29831
1.87835 1.22116 -2.18061
-1.8331 3.3614 0.627293
1.33945 -1.00688 3.12285
0.550373 3.31035 -1.06034
-3.19582 3.3734 -0.438908
1.13578 -1.03083 -2.93113
0.859615 0.408573 -1.69053
1.29128 0.696392 -2.43533
-1.21439 -0.167377 0.803982
-0.977161 1.26117 1.15168
-0.154057 1.5248 -0.694508
-2.0623 -0.132381 -1.40046
-3.00679 1.03823 2.1282
0.468403 -1.68966 1.3712
-3.50604 3.39624 1.20907
-2.43344 3.20414 3.18196
-0.588436 0.804394 -0.47681
0.979954 -1.87152 -2.84777
-2.28341 2.42347 -0.011425
2.4038 -2.85826 -2.8176
-2.35805 -0.299892 3.24273
0.777027 -3.5213 -0.956997
-1.16212 -2.57988 -2.4543
3.2128 -2.05114 -1.14024
0.354527 1.42099 -1.27953
0.000957489 2.45048 -2.14273
2.52787 3.02076 2.19719
2.68382 -1.10321 3.32939
0.13686 2.88046 2.21733
0.854794 -2.93849 2.8946
0.0301781 -3.07022 -0.472645
-3.46235 -2.42455 -0.990223
-2.91293 1.88801 -0.034565
-0.517635 -3.34146 1.44983
2.20655 3.40688 0.335285
-3.47171 0.225872 -1.28158
3.26101 3.23055 -1.79636
3.05487 2.69107 0.104145
2.20485 1.83935 0.44907
1.03209 -2.09114 1.04612
-3.5079 2.76738 0.979618
-0.962589 -0.73798 3.0906
2.53838 -0.664799 0.911266
0.920864 -0.0421944 2.10534
-2.8112 -3.09536 1.97669
-0.557247 2.11491 -0.864788
0.650112 2.17873 -1.16977
-2.78128 1.37239 -2.01424
0.671513 1.35991 -3.24224
-1.34972 0.0292244 -1.79784
2.63362 -3.00603 -2.566
2.18869 -1.9784 1.23156
0.0326042 0.594547 -3.50059
-1.39759 0.597393 0.460934
-3.48825 -2.54909 0.901104
-1.34932 -1.82476 -1.05133
2.01645 0.621716 -2.40814
3.00592 -2.26371 3.49979
3.29922 -2.04126 0.792355
-1.03415 2.63397 -2.71395
-0.0646172 -2.25129 -2.71627
-2.90041 3.38605 -1.15913
-2.39728 2.50739 -3.10012
1.59919 -0.995541 0.500996
-1.56706 0.610592 1.48744
0.917141 0.126064 2.6664
1.51272 3.31228 -0.247417
0.945164 1.79319 1.02441
-1.79802 1.26358 1.98687
-1.50825 2.02727 1.0853
0.311016 -3.07423 1.83773
2.68742 -0.135128 2.68825
2.59102 0.968182 1.66011
-0.443516 2.10643 -2.87097
-3.02343 0.170086 0.743343
3.17851 1.60675 -2.66613
-0.604443 -1.01165 -2.88938
3.42369 3.5048 1.90754
2.87502 1.91442 0.103771
-0.107029 -3.41912 -1.93631
-0.804829 -0.391842 -1.475
-2.18393 3.45471 1.9254
2.4799 2.07478 -1.17376
3.14447 2.13027 -2.60286
-0.179539 -1.84878 0.570942
0.689869 -0.868488 -1.35785
1.80421 -1.22551 0.634228
-0.355602 2.70558 1.60349
3.2837 2.06192 -0.549435
-2.18814 1.4014 -0.433025
-0.65942 -1.77298 2.17885
-1.80136 0.425915 1.56621
0.560406 1.77752 1.10546
1.96126 0.721889 -0.299809
-1.00333 -0.200993 0.855129
1.64254 2.62319 3.52217
-1.79058 -0.222477 -0.238873
2.81663 -2.48561 -1.60064
-1.26834 1.69432 -3.07426
2.30236 0.910671 2.33086
0.945675 3.25807 -3.50946
-0.0236473 -1.4687 0.451984
-2.45372 0.265469 -1.83784
0.250187 -2.24147 1.88777
-2.96203 3.25532 -2.38057
-1.97539 -1.81536 -3.29292
0.789455 3.36272 -0.511677
2.72435 -1.4952 1.53824
2.6538 -2.21411 -0.834789
0.917316 0.521275 -3.45965
0.943386 -0.711903 2.80214
-2.14016 3.23749 -1.2021
-0.974285 -0.32169 2.06709
-2.62205 0.228306 3.36115
-1.46709 3.48221 3.08094
-1.75629 -2.01535 -1.26995
2.26757 -0.455212 -1.97458
-0.261539 3.33796 0.0657463
2.43921 2.52678 1.85536
2.51509 1.11323 -1.1589
2.24987 -0.504986 1.13292
-2.48776 3.44212 0.834873
3.11486 -1.23358 -2.55416
-3.13059 0.795856 1.20967
2.95407 2.70934 2.15635
-2.38324 -2.8251 3.14472
-0.354099 -0.0458565 -0.846027
2.71537 -1.84564 -1.57541
1.03519 1.42836 -2.58417
2.88001 -0.199787 1.53278
-0.0544243 -1.75205 -3.03955
-1.75508 -3.03771 -2.13297
-0.773716 -1.98993 -0.362827
3.43968 -1.94242 -3.1025
1.52868 -2.06929 2.61055
1.13787 -2.65075 -2.75008
3.29556 -1.03027 0.207783
-1.81539 2.15117 1.36586
-1.39584 1.331 -1.27313
-2.93041 -0.70116 2.06262
-2.43443 -1.8885 3.31429
-1.03186 2.59261 -2.25895
1.60903 -2.69801 -1.24517
3.04206 -0.468006 0.34795
2.11708 -1.09568 1.8142
2.37072 -2.10253 3.16716
-1.48885 2.03906 -1.93045
3.41255 2.26727 -3.31482
-1.39611 3.4556 1.01989
-3.40084 -0.475773 -3.2168
-2.62209 -0.402462 -0.569767
-1.34551 0.698643 -1.51269
0.413044 -3.40057 -1.20698
-1.77454 1.74399 1.32873
3.04338 0.7187 3.23677
2.14319 0.300243 -2.9331
-3.3228 -1.39639 -3.42958
3.43717 1.11848 1.84141
1.92153 0.995495 1.76148
1.70845 -3.46797 -2.78164
-2.39685 3.20597 0.351429
-0.905827 -2.95165 -1.48546
0.890911 -1.29344 -1.88231
-1.84771 -3.41593 3.39721
-1.14647 -2.18675 1.58038
-0.544033 -3.21072 -2.18673
-0.969891 2.93619 -0.579395
-2.66401 3.14893 -2.99645
-3.43807 3.51875 2.00277
-2.68418 1.90474 2.07033
2.20279 0.0776558 1.20896
-3.35003 1.68452 2.79284
-1.6968 -2.75684 -2.56794
-2.36694 2.13779 -2.98015
2.74897 -3.24545 -2.16318
-3.5051 -0.85638 -1.37018
0.451038 3.13512 -1.96952
0.990124 -1.90212 -2.35613
-1.07446 -0.0305977 -2.90473
-2.53966 -0.464947 2.53555
2.67302 0.38641 -0.454144
1.39851 -1.47815 -2.30516
2.3661 -1.82446 -2.05828
3.38967 -0.517544 -3.45602
-2.84086 1.65105 -2.69775
-0.67551 0.332676 -0.0185966
0.890499 0.831295 -0.950825
2.53809 -2.2532 1.68259
3.1689 1.74064 -2.41536
2.6371 -1.86935 0.655231
-1.35258 -1.40529 -3.02571
-0.654018 -2.26781 -0.500141
0.823238 2.66623 1.21093
1.37094 1.96498 -2.37396
2.20872 1.2873 2.81263
-1.87722 1.98198 -0.922047
1.17567 -1.22907 3.44478
-1.20909 3.19696 -2.87577
-0.0889091 2.19952 2.8686
-3.50103 2.30107 -2.53629
-3.52301 1.40263 -0.937862
-0.487621 -3.48549 0.798046
-2.34404 -1.13578 -0.603069
-1.18246 2.69117 -2.17362
-2.43718 0.526577 2.1174
0.176304 -1.33205 1.56385
0.553738 0.794445 -3.20076
1.2135 -1.56542 2.99993
0.0147514 0.229214 2.1321
1.014 3.14402 0.897633
-2.99121 3.17853 -1.23527
1.34237 3.19105 -1.71704
-2.79624 0.167896 0.682713
-0.966137 0.827579 -0.161648
-2.38427 3.18065 -2.70242
2.71511 -2.79206 -1.03075
2.51808 0.387959 3.29923
2.98247 -3.12565 -2.33354
1.57904 2.09157 1.43121
-1.59068 -1.42921 1.0397
0.709583 -3.48256 0.682697
1.99627 -2.93824 0.8064
-1.38837 1.93966 -3.09305
1.98552 2.14714 1.27006
2.28682 -2.35453 0.383366
-1.27947 -0.735081 0.59502
-1.51577 -2.08731 -2.55256
0.154408 -2.10477 -1.14267
-1.94992 -3.18965 -3.11845
-3.44575 1.39311 -1.01213
0.240665 3.33796 -0.959156
-2.48847 -0.0198021 -0.361866
-2.5778 -2.09089 -2.48956
2.22779 0.0562782 -2.87796
-0.924374 -2.02555 -2.22877
3.20618 -2.27427 0.571682
-2.41372 -0.550022 2.48809
-0.552677 0.937923 3.38704
-0.135593 -2.4432 -3.33815
2.38781 0.142414 1.05868
-1.63869 -0.299618 0.329296
1.53498 3.47658 3.31321
-3.49012 -2.07924 -2.31321
-3.36435 -1.1215 1.27861
-2.58941 -1.96106 2.78859
1.986 0.650105 3.51803
0.938549 0.788937 -1.09934
0.790051 1.91075 -2.69695
0.455624 -2.70928 -2.13643
-2.02123 0.690662 1.54152
1.31179 -0.988873 -2.82545
1.08947 0.90797 -2.41622
2.31179 -0.624401 -1.49173
-0.476948 -0.578983 0.922298
-1.75571 -0.939617 2.49678
-0.773212 0.00651169 0.0795326
1.13117 -1.54303 -3.19888
1.96975 2.39924 1.71559
-2.70221 -0.346241 2.54184
1.84302 3.1131 -0.303028
3.02129 -2.97548 1.71182
-2.93046 1.87185 0.0842552
-0.886662 -0.574223 2.99539
3.03936 -2.32978 -1.65094
2.46878 0.728809 0.413158
-0.987217 3.50863 -3.11586
-0.650562 -1.33193 -0.65517
-3.00232 3.33477 -1.79146
3.07505 2.23718 1.86602
-1.29532 3.0705 1.44358
-3.11904 0.846172 3.00364
0.500751 0.331928 0.80814
-0.571209 0.405186 -2.30162
0.781567 3.05406 -1.62767
-2.34081 -3.51319 -3.4344
-1.45295 2.49113 3.07795
0.895596 -2.56343 -1.78951
2.10785 -0.210278 -2.52208
0.438335 0.322933 3.25063
-0.653614 -0.137547 2.25378
-1.71732 2.10266 0.564419
2.62635 1.98735 -3.171
3.32846 -0.57925 1.76972
-0.834751 1.85326 0.756428
-1.26543 0.0992928 0.778774
-1.72301 0.762203 -0.797443
-0.508801 2.84478 -0.357159
-0.0271645 -0.326969 2.9681
0.687931 -0.75465 -0.776318
-1.12564 3.21922 2.08986
2.4425 -1.50174 0.125172
-3.26403 -0.215343 -0.423016
1.5094 -0.124523 2.00145
-1.2697 -0.863415 0.31918
3.51279 1.83737 -3.11706
-0.820187 -3.49541 2.18068
3.35819 -2.2147 0.958111
2.25894 0.812031 -1.90439
-1.58473 -2.28248 0.876492
-3.03041 1.40917 0.0283623
1.09848 -3.252 2.53034
-2.86007 -3.34504 -1.22054
2.67692 3.46572 1.65866
-1.07125 0.907772 -2.27211
0.347225 3.1736 2.56898
-1.53945 3.15086 -3.46196
2.9542 -0.736675 -2.14113
-3.01754 -1.44584 2.67462
0.862667 -3.25425 -3.1434
-2.17632 -1.30344 1.8013
-3.18151 -0.330128 2.08484
-1.39833 -2.76718 1.74352
-2.80703 -2.62352 1.14189
-1.5436 3.05712 -1.48587
-2.51015 -1.54966 -0.847805
-2.43658 1.80128 -1.76429
-0.573994 -3.2737 1.03456
-1.43491 -3.38685 3.12426
-1.04277 -2.86886 -3.19733
-2.777 2.52934 -0.965237
2.31155 -3.18251 1.70835
0.98772 -3.36031 2.47671
-1.40593 -1.22311 2.85691
1.11192 -0.494602 2.37849
-3.27142 1.49733 -2.23852
-2.03199 2.9909 3.09829
-3.53296 -2.98121 -3.24276
2.59502 -0.0196724 -3.09407
2.40141 1.54914 -2.4274
-1.09936 -3.02917 3.10566
-2.92654 -2.80246 2.92686
-3.51718 3.51281 3.10209
2.87526 0.965 -0.656559
2.18641 2.56279 1.85256
2.9516 0.139179 0.282543
2.51436 -0.128521 -0.262089
2.80714 2.37502 0.292233
3.2486 1.84578 -2.79479
-2.24615 0.373447 1.75807
-2.67603 0.239323 2.73262
-2.2847 2.14368 3.46569
-3.24997 2.75267 2.91116
-0.370991 2.23922 -0.191189
-1.58578 2.04713 -0.163929
2.2323 0.698002 3.51078
-1.56533 0.114071 0.314915
1.73063 -1.43892 -0.8456
1.93956 -1.69912 -3.06717
1.16209 -2.51787 0.841808
0.359173 -1.22849 -2.4544
-0.242481 0.0992012 2.693
-0.39867 0.818218 2.37832
2.94567 1.10379 1.082
-0.753788 -2.33455 -0.406399
-0.310352 -0.916615 3.29532
3.00828 -2.21985 -0.657955
-1.37285 -0.78146 2.43866
-1.43631 -2.58637 -3.32781
2.94104 3.35691 -2.31015
-2.58072 0.983463 0.465084
-3.42325 -2.72471 -3.50306
2.4906 0.0365257 0.318874
0.50526 3.17339 -2.64469
-3.43667 -3.48754 -1.97552
-3.2087 -1.23761 0.643398
-0.33112 1.45576 1.95908
-1.9598 0.928509 -2.35791
-1.75208 2.55938 -0.940563
-0.058506 -2.41246 -1.11919
3.4103 -2.53878 2.86799
2.91095 -2.11577 -3.39225
-0.305706 -2.00349 -0.352009
0.0533257 -2.58023 0.285847
2.61334 1.46056 -0.197971
-0.278797 1.02761 1.56814
-1.38707 1.35444 -0.0434456
-0.209446 -1.51221 -2.65047
1.85371 -0.468296 -3.15844
-2.80101 1.78334 -2.56719
-3.46856 -1.8107 -2.10225
3.21398 -2.46775 -0.682484
0.326435 3.44693 1.84956
-3.45507 -0.926128 2.27304
-0.117504 2.66273 0.198071
-2.61671 1.74054 -2.30986
0.875378 -1.60561 3.04831
2.22863 0.542858 -1.99944
2.0739 3.33713 1.0678
3.04225 2.65531 -0.684391
-2.12735 2.85801 0.508633
0.725704 -3.14608 1.04461
-1.49208 3.07162 0.955997
-2.75457 -0.669292 -3.50566
0.447216 -0.588825 -3.37847
2.67289 2.29739 1.36579
2.18567 -2.85485 2.7639
3.18995 1.02424 -0.228779
0.190395 -0.282665 0.0410042
3.50972 -1.7443 -1.37104
-0.0489922 -1.7694 -2.04856
-1.53992 -0.36121 -2.19091
2.4198 -3.17104 -1.65483
3.44967 -0.12759 0.6796
3.07492 0.121555 -2.44476
0.90517 -1.96676 2.85635
0.601719 -2.8294 3.00521
-3.16259 2.35998 1.49392
-0.11787 1.48258 -2.32428
2.04663 -2.39437 0.466961
-2.53746 -2.42019 2.2331
-1.19284 2.06636 -1.66365
0.156048 3.53016 -1.83097
-1.69989 2.41442 1.57698
-1.14093 2.32855 -0.837002
-2.35192 1.33612 0.199955
-1.88224 -0.826061 0.374271
3.14721 3.31119 -0.801281
-2.7126 -3.38694 -3.38605
0.758083 0.498913 -2.24489
-1.07617 -0.989994 -0.661358
0.263905 -0.523739 -2.66235
2.96847 2.81895 -2.66773
0.4781 -1.09235 3.28222
2.64482 0.211483 2.54342
-0.690762 2.07428 0.344006
3.21904 -2.81318 3.05348
-1.64959 -1.15989 2.82914
-2.03192 -1.54821 3.44592
0.258724 -1.25709 -0.122517
2.60109 3.50471 2.42302
3.47427 -1.10699 -0.63625
-2.72899 -3.37862 -1.88465
-3.51412 2.59357 0.026722
2.56484 -0.995678 -2.29733
-0.158504 -0.886395 3.31248
-1.17237 1.42656 -3.03624
-1.41059 1.57826 -1.19241
-2.03202 3.46421 0.79491
1.381 -1.10324 -3.52953
-0.263325 2.1592 3.51072
2.10415 1.22475 -1.13181
3.22322 0.631672 -1.50671
0.714405 1.43821 -2.98049
1.4208 0.927814 0.559368
0.665928 0.957119 2.67669
1.63341 -3.26873 0.567722
-3.09453 -1.43739 -1.38955
1.7041 0.687557 -0.992695
1.7101 1.65926 0.90778
1.15347 -1.02709 -1.00037
3.02538 3.24512 3.2281
-1.01686 1.28192 0.324238
-0.461819 1.9696 -1.77308
3.10127 -0.851528 2.69027
2.24243 -3.49808 -0.419964
0.274616 0.703381 -0.684978
1.88878 -1.19874 2.41317
-2.63945 -0.289555 -0.966625
1.80387 -2.12099 -2.37471
-3.26385 2.59283 0.133732
3.49978 0.210766 -0.156681
0.288486 -0.299389 -1.4103
1.51912 1.68747 -3.50805
1.67385 -1.8417 -0.824039
-2.81346 -2.27597 -0.786587
0.505283 -2.56907 2.92051
-1.1489 0.709263 -0.813763
1.42001 -0.937489 1.9004
2.04902 0.426785 3.31495
-0.352787 -1.8367 1.84043
2.49425 -0.565014 -1.48434
-2.98339 -0.600765 1.21999
-2.95591 -2.84781 -0.159893
-0.244411 2.20684 1.53394
1.97272 -0.186649 2.26169
1.82589 1.00361 3.22815
-2.52341 -2.02664 -0.129932
2.38071 -0.171818 3.46811
2.16012 -2.81916 0.359364
0.465015 -3.30568 1.52639
1.98439 -0.122929 -2.57416
-0.862965 -1.16421 1.36061
2.51268 0.387928 1.51651
-0.0207329 0.435741 -0.34399
-0.294575 -2.3442 -3.06617
-1.13377 2.63224 0.941158
3.27183 0.922588 1.91824
2.6726 1.4029 -1.78911
-1.03539 0.248074 -1.07273
-3.04454 -1.65915 -1.37469
-1.08316 1.80958 2.03791
3.28116 -0.273373 -2.19365
0.730328 3.3992 1.198
-3.1492 1.84452 -1.90179
-3.21165 -0.711742 -1.24228
1.26504 1.9974 -1.14557
-0.884068 -3.20372 2.78074
0.862354 -3.46742 1.11628
-3.27773 2.74071 -2.70299
-1.11689 -1.83021 0.173389
-2.14632 -0.871029 -2.08438
-0.804432 1.04953 2.17778
-3.14196 0.795155 2.04145
-1.50822 -2.54187 -0.181377
1.78504 -2.15553 2.1106
-3.42788 -0.831646 0.572468
2.35657 3.43711 1.90429
-0.0626793 0.0175133 1.44059
1.23805 -3.18748 1.11395
-2.1241 -3.46149 2.28746
-0.672939 -0.574657 -2.11911
-2.5625 0.814556 2.46595
3.01448 -3.52541 -0.80624
-0.234249 3.40741 0.187428
-1.65918 -2.16816 2.56743
2.917 3.15242 -2.33156
0.753941 2.72825 -2.9618
-1.34101 2.54929 0.0594368
3.30848 -1.58074 1.40749
3.0604 3.19284 0.949718
-3.12606 -2.9986 -3.16047
-3.19564 0.33218 1.18962
-0.998158 1.30521 0.667927
-3.34626 1.25234 0.539806
2.22489 -2.51744 2.90718
2.89705 -0.641094 1.99225
3.47078 -1.25962 1.65316
0.994686 3.02985 0.135098
-1.66517 -1.37851 2.08989
2.82008 -1.60556 2.21539
-2.87593 -2.61251 2.22051
1.84922 -1.73485 -0.982845
-0.550198 -1.39495 -2.74498
3.52514 1.14242 2.04289
2.36498 0.799877 3.06098
1.28988 -1.04258 -1.64746
-0.592495 -1.68107 1.62844
2.54632 -0.745823 0.590946
1.10068 3.25258 2.74797
-0.751278 -1.94812 -1.92494
-1.0663 -2.66358 -1.53373
0.954571 -2.53579 0.266949
1.74512 -3.2221 2.40753
0.252476 -0.236759 0.482601
-0.753895 -0.778965 -2.78487
2.13417 -1.48133 0.70808
0.227085 2.81227 2.03073
-3.24932 -1.84758 -2.25063
-3.03688 -2.83679 -3.0654
-1.9581 1.79943 -1.47799
0.043705 -2.0192 -0.137844
-2.22488 -0.0817833 0.861904
3.18637 -2.66275 0.643528
-0.39838 -3.45316 3.41049
1.35228 -0.196964 -0.435825
-2.00698 -3.48639 1.61837
-3.51179 1.6515 0.895107
-1.7587 -2.18876 2.58307
-1.28856 -1.90255 3.28181
1.23717 -1.9357 1.01389
-2.43621 -0.358265 1.99841
1.96123 -2.85009 -1.61891
-0.462589 -1.53944 0.25388
-0.587635 -1.88861 -0.19556
2.51207 1.71673 2.61119
0.594913 -0.998333 2.12852
-2.57733 0.530216 0.244488
3.00946 0.0221443 1.59126
2.22392 1.79898 -3.37864
0.17046 -2.55693 -1.7788
-1.36666 1.68396 2.39846
1.54996 2.78328 3.0839
-2.26351 0.677166 -2.52288
1.07647 -3.32096 -1.40777
0.152126 0.626942 -3.22657
-0.254887 -0.396519 -0.689373
2.99332 -2.86895 2.84456
1.51723 -2.44256 0.331173
1.67413 -2.50045 -1.9372
3.43086 3.259 -1.49041
2.29379 -0.106075 -3.34199
1.31034 2.53098 2.97683
2.32299 0.545406 0.586643
-1.62031 1.28562 0.80122
-1.84317 -1.17345 -2.63919
2.00299 1.9824 0.968014
0.780209 -2.33984 1.10278
-2.42415 -1.88205 1.66394
-0.357632 2.6389 2.69902
1.68749 0.777493 2.89067
2.88103 0.672817 -1.28276
1.79051 -0.100742 -2.28731
-1.6902 -2.85775 1.26181
3.11474 -3.07029 -0.988102
-3.05998 -1.68688 0.842167
0.911755 -0.526325 0.289028
-2.05281 -2.59068 0.952908
-2.92441 2.72506 2.07457
3.31014 3.30463 1.17794
2.13346 -0.588535 -1.5801
-1.68483 -1.43658 3.09643
-0.968426 -2.6229 -1.07166
-2.24215 2.17133 -0.393871
-0.226528 -2.0544 -0.460438
-1.9199 -2.47519 0.856403
1.37285 -2.53145 -2.20546
-1.20977 2.91584 -1.2606
-1.67073 -2.67251 -2.60289
2.51092 -2.5932 -1.83379
-1.60472 -1.8186 1.11321
-2.57563 3.31858 2.68035
-0.643574 -1.90179 3.06117
2.49809 1.66532 2.69696
-1.0297 2.42689 -2.89297
2.83043 -1.33517 -2.36444
-2.91056 0.280468 -1.36036
-0.167446 -1.88221 -1.98006
0.233387 1.44355 -0.648853
1.93513 2.77653 0.293476
-0.0190086 1.75192 1.4786
-0.874195 3.15092 2.26164
-0.34856 -3.49206 3.36357
-1.71894 -0.600101 1.49335
-1.6082 -1.16936 -0.147106
-0.437107 1.33648 3.05326
1.73806 0.631367 -0.733624
-2.77753 1.72452 1.9197
-0.422665 -2.51027 -0.704105
3.40635 1.25865 -1.99492
2.34941 0.126431 3.29253
0.543697 -3.42811 -3.16315
0.371731 -1.29859 3.41957
-1.20227 1.35657 0.283939
2.18616 3.17316 2.65011
1.70388 -1.97057 -0.080761
-1.56527 1.12786 -2.98493
3.35814 -0.201427 1.74331
-1.41331 0.556576 2.23676
0.1273 -3.40162 0.428059
-0.115704 3.00844 -2.98104
-0.275135 1.82232 -2.87362
0.608906 -1.16952 -1.16849
-2.64269 3.20593 -2.34745
3.01114 -1.53187 -2.70983
-0.605152 -2.88124 -0.676678
-0.586361 2.82636 3.4549
-1.37858 -2.80626 -0.282063
-2.67736 -2.98365 3.27823
1.28624 -0.861431 2.88033
1.30891 2.8014 3.35324
1.43901 -1.38165 1.1082
-2.26502 2.34694 -2.59685
-1.07694 -0.579693 -3.45827
-0.783047 -0.218662 -1.45461
1.54399 -0.743053 -0.80032
2.46336 2.18733 -2.04131
-1.88605 -2.46638 -1.31204
-1.14335 -0.309429 -0.760159
-2.33037 1.01693 1.38213
-2.51267 -1.76418 0.116184
3.13107 -3.52262 3.27007
-3.53313 1.45192 2.08147
-3.45587 2.72244 -2.56557
-1.37494 -2.42185 0.751301
0.828457 0.798824 3.01197
3.32268 -1.19271 1.13195
-1.52489 -2.7967 2.2011
1.71867 -0.679035 -1.17568
-0.966549 1.71315 2.84497
-3.3859 2.91831 -2.45474
2.88789 -2.66171 -2.44182
1.43383 -3.06617 3.01382
1.87197 3.47548 2.20073
-1.44407 3.02333 -3.28847
-1.96764 -1.88714 1.04589
2.16803 1.94503 2.85689
0.833591 1.20037 -2.47535
2.66163 -3.39187 0.381153
1.97107 1.86233 -1.97305
3.52005 -3.17157 -3.12209
-2.4573 -3.02193 -2.78008
-2.97902 3.40149 -2.84253
3.22543 0.767971 -2.90258
3.47249 -1.4274 -3.41478
0.451031 0.664059 -2.29821
-0.227612 1.70014 -3.42052
0.300762 0.33263 1.31538
-3.38543 -1.90113 1.45904
-2.35476 -2.77503 -0.745975
-0.941319 -3.33949 0.617992
-0.717678 3.18428 0.599781
0.975323 -2.80855 0.933926
1.60827 -1.78385 -2.36545
2.19721 -2.62577 0.74268
2.90272 -2.68881 -2.66061
3.01773 0.765942 -3.49601
1.26577 -2.9972 -0.159657
-1.34254 1.83909 1.47475
1.9152 1.98919 2.70344
-1.53415 -3.43292 2.36767
2.60116 -0.838703 2.01642
-0.532261 1.97915 2.7434
1.10601 -1.11287 -3.10779
-1.68685 -2.57195 -2.19802
-0.811924 3.16079 -1.88311
-1.30421 1.99617 2.41836
3.07167 1.94655 3.42488
1.01088 -0.323215 1.19662
-0.353024 1.86978 -0.881535
-1.52089 0.249447 -0.778919
-3.04 2.25083 1.3861
-3.36394 1.78464 0.297901
-3.46801 -2.81497 2.72056
-1.1305 1.82657 -3.38692
-0.00989914 3.14344 2.77759
-0.658886 -0.735828 2.23822
-1.30136 1.49549 0.649242
3.4308 1.03163 3.32975
-0.986271 -1.02484 1.13218
2.23853 2.15767 -1.15391
0.0890923 -2.43056 -2.97043
-3.14854 -1.93502 1.81793
-3.49533 -2.29525 -3.53257
3.19254 -1.22773 1.29772
3.4346 0.645489 1.90563
1.60547 -2.89994 -2.36573
-1.81263 -0.555111 2.66529
-2.01842 1.67907 0.629574
2.64929 1.04251 2.60846
-2.57197 -3.0111 1.23059
-1.53868 2.76296 1.80375
-3.25629 -1.2153 -2.66681
3.28592 -0.360119 -1.95833
2.04811 -0.319912 0.349476
0.418201 -0.662907 -2.54057
1.588 -1.29566 -1.43679
0.185947 -3.22572 1.01181
-2.72001 -1.50282 0.155346
3.42398 -0.517521 -2.86949
1.58722 -0.403767 -2.34506
-0.144558 0.559795 3.42162
0.192356 2.55664 -0.329212
2.76956 3.30407 2.31439
-0.948315 2.52265 -2.07287
1.04665 1.03522 0.267941
2.61357 -2.61393 3.50782
0.0898552 2.50961 3.28582
3.24892 -0.371792 -1.28435
-2.68792 0.443729 1.73366
-1.49744 0.800358 -2.73745
-1.14317 -1.67977 2.35788
1.53134 1.17939 0.847172
0.310192 -1.6956 0.0838966
1.77285 -2.46157 0.0710106
-1.49474 -0.40617 -2.4293
-2.05427 -2.89505 -1.03951
-1.8358 2.72224 -2.06543
0.415379 -0.255253 0.566494
-1.91831 -0.541866 -1.52531
-0.120228 -0.226063 2.27877
-1.29789 2.81203 -2.93653
2.55301 -1.86667 1.77839
0.101368 3.2002 -3.45274
3.1761 -0.556957 -2.91059
-2.78874 -2.31964 1.21877
-0.292713 -0.810658 1.32743
1.64557 1.13879 0.982327
-1.32347 2.83852 -2.80846
0.154942 -0.281635 -0.346607
-1.63364 1.33559 -3.1082
-1.03464 -2.32017 2.70755
-2.3236 -0.614338 -3.22647
-2.77262 -1.12868 2.97744
-1.67949 1.97641 -1.11505
2.543 1.61697 -0.430965
-0.196918 1.83195 2.29391
-2.75013 -1.52811 -0.102833
-2.55487 3.12118 -1.33166
1.63406 -2.26963 1.92224
1.52958 2.42084 0.190479
0.701588 -3.28015 0.874027
1.01065 0.220745 -2.27584
-0.079258 0.900867 -0.400806
2.34123 1.13197 -1.95993
-1.62527 2.98801 2.66076
-3.39871 1.46366 0.957172
0.502178 -1.2688 2.43278
2.70605 -0.483387 2.01843
1.56094 1.49728 -2.78674
-1.78411 -0.936008 2.63782
2.62545 -2.94197 2.89321
3.35332 0.76334 -0.953396
-1.11483 -2.29336 2.95119
-0.0710487 1.16291 1.54763
-0.945827 -0.0313911 0.468288
-2.52419 1.34706 -0.603588
2.91231 0.952068 1.13134
2.39521 -2.08129 -3.4194
2.61219 -2.44258 1.0816
1.71447 2.65389 -3.38994
0.540333 -3.19757 -3.32819
-2.9486 2.43159 0.438869
3.00631 2.71756 1.68104
0.486591 -1.9328 -0.691578
-1.58065 2.53168 2.28075
0.819477 -1.94968 0.0922737
-1.58472 -1.47015 -1.49119
-1.46859 -1.09337 -0.56876
-2.92252 -2.76551 0.524189
-3.30874 3.38221 -0.889271
-2.63321 1.02933 -0.551311
1.34119 -1.96587 -0.655254
0.486698 -1.91075 -1.47322
2.79884 -1.43997 0.129505
2.54406 2.58216 -1.40616
-1.43102 -3.06585 0.647877
0.0815086 1.28917 2.18145
-3.02279 2.70816 -2.44746
0.505123 -1.82777 -2.20926
-2.91968 -1.74657 -2.36258
0.0645409 -1.51978 2.20228
2.94482 -0.617458 -2.83094
-2.59575 -1.8118 -1.20615
1.53747 1.67862 0.357601
-3.40422 0.941921 0.404224
0.779186 -0.0495567 0.342098
0.425098 3.05496 -1.43608
0.981358 -0.930882 -2.26345
2.77582 -0.418133 -0.555691
-3.1223 -2.98036 1.23327
3.08371 -2.36451 -3.35386
-3.28276 1.23557 -0.967594
-0.953381 1.11304 0.756138
3.40794 2.05282 -1.10078
-0.255184 -0.477055 -3.22621
-3.44862 0.654255 0.259769
-1.34917 -2.63391 -0.752621
0.391094 0.79491 2.85203
2.83912 -1.29108 -1.63345
1.00505 -2.05079 -1.07827
1.18673 -2.16937 0.0927544
-3.3164 -2.6212 -1.73903
1.44345 -2.36843 2.90955
3.34639 0.681911 0.895023
-3.41535 0.554317 -2.11757
0.848141 -3.2364 1.54041
-3.44001 3.38977 1.91022
2.41574 -0.494938 -0.362217
-2.28506 2.89988 1.88224
-0.359615 2.20346 2.83516
-3.33421 -0.327023 -2.86974
-1.5377 -3.20765 -1.48722
-2.6955 -2.52033 -0.32011
1.20324 2.45866 3.36552
2.0894 1.73771 -0.147511
0.0942726 2.85789 -0.380192
-1.06285 -0.361317 0.474041
2.11046 -0.797611 2.98282
-0.0746498 -1.44922 1.81535
-0.775021 -0.19875 0.48328
-0.641041 2.97717 -2.91109
1.40728 3.17849 -2.5832
-1.98018 -2.42656 -1.568
-2.68201 -2.11834 -3.17669
1.70601 -3.45063 3.09655
-2.74153 2.1743 1.8871
0.736233 -0.798771 -2.00975
-0.348293 1.67391 0.728168
-2.06848 -0.282978 2.81448
2.41852 3.17791 -1.45162
3.04296 -1.66446 -1.5418
-3.07577 1.23003 -1.89884
-0.640049 -0.430042 -0.321674
-0.2812 1.12531 1.09552
-1.252 1.97883 1.18043
-2.90043 -0.382504 0.287388
-1.90647 1.4115 2.49234
3.35723 -1.91961 0.098896
2.10437 2.26763 3.35145
-1.88279 -3.33638 2.46201
0.11095 2.08586 -2.73799
1.21583 1.59329 1.49576
-3.17319 2.52124 -2.46981
2.45787 -1.65435 2.19103
-0.42905 1.06817 1.10251
3.39387 -2.71936 -2.81553
2.35067 -2.08426 1.5997
-1.08596 0.544811 -2.85545
-1.80186 -0.165302 2.94771
-2.87539 -1.59647 2.61505
-2.60965 -0.475536 2.16537
3.42164 2.63913 -0.308689
-2.58371 0.787617 -1.32299
-3.46003 1.14996 0.0263863
1.17802 -0.459522 -1.44098
1.36621 -3.42411 -0.624798
-0.101437 2.97348 0.826481
0.578648 2.25681 -2.69606
-0.540989 -2.8965 0.674175
-1.99329 -0.16283 3.08142
3.1758 -0.0344963 -1.46146
0.331577 1.89138 -1.35786
2.01231 1.24568 2.43348
-0.496838 1.66569 -0.483913
1.59772 1.7412 -3.47897
-2.56261 -1.14813 3.17171
1.26759 -2.84926 2.60966
3.10707 0.584835 0.799122
0.245708 -2.90387 2.43815
-0.740215 0.0906792 -1.79203
2.33386 1.10111 1.70901
-2.55954 1.74137 -0.466953
2.87766 -1.46258 -2.75681
-1.14179 -2.98581 3.44442
-1.08522 -0.478924 1.11827
-1.44905 -2.41674 -3.09721
-1.90673 -1.97563 -2.94275
2.42792 -3.24357 1.17762
1.33054 3.39903 1.27747
2.54223 -0.422611 -2.16739
1.71571 3.37271 2.46926
-2.81859 2.17103 0.143284
-1.03987 2.61522 2.21624
-1.6628 1.95734 3.23415
2.45919 -3.2518 -0.780308
2.3657 0.198513 0.806675
2.95848 1.75319 2.36658
0.0687447 2.85017 2.65854
-2.18932 2.74256 1.99022
-0.821171 0.00574875 -0.967922
-1.41926 0.0124474 -1.66256
2.25956 -2.33919 -3.02707
1.40844 -1.62225 2.59187
0.575245 0.341602 1.01368
2.79866 1.68252 1.29741
0.0697975 1.60617 -2.57142
-0.63097 -0.0954781 3.18548
-1.50796 0.327465 2.50012
-2.58509 -3.13932 1.17533
-0.0174751 -0.79311 -1.88627
1.8555 1.38944 1.12989
1.83215 2.9739 1.79442
0.888485 2.1661 3.17589
-2.16519 -0.492802 0.98196
2.13594 -3.45309 -1.40287
-3.50283 2.8811 3.20703
3.21819 -0.116451 0.576015
1.65096 2.78811 -2.63205
-0.241062 -2.7872 -2.76766
0.876385 -1.83675 -0.557049
-2.06107 1.14949 -2.23496
3.26889 -0.530544 -2.7966
2.90924 -2.76574 2.37323
-0.176144 1.12646 -1.65511
2.95652 2.49681 -2.10448
2.0962 1.5654 -2.29073
-0.863316 1.59811 1.12835
-0.49165 0.748951 -0.150883
1.27623 -1.66744 0.597454
-3.34817 1.62703 2.76442
-2.0476 -1.56393 0.378384
-0.840473 -0.0894661 -3.21951
-2.00278 -0.887928 -2.44972
0.345829 -1.04603 3.21228
1.77688 2.31336 1.64174
3.02169 1.20253 -0.328396
0.0826912 0.763203 -2.79763
3.46734 2.90361 1.48685
0.997448 -0.123577 -2.71612
0.226337 -2.9147 1.91463
-3.46263 -2.72734 -2.18483
-3.1466 -0.771214 0.72942
-1.5926 1.92385 -2.69404
-1.91586 2.92479 -0.20454
2.7296 -0.264919 -1.95853
-0.666149 -1.55539 3.24772
0.0717506 -2.60105 -0.0564232
-0.976933 2.01718 -0.688351
-0.689335 1.41717 2.19179
-2.31024 -1.65273 2.28081
-1.49135 1.57733 -3.51387
3.24179 2.65023 -0.749554
-2.98779 3.03917 -2.89305
-0.18861 -2.08897 -3.5038
0.856579 -1.00111 0.234997
0.036953 -0.807049 1.68333
3.51606 2.06234 2.61782
-0.239635 -1.40145 0.567646
-1.58338 0.62534 -0.550716
-2.36992 3.47154 0.800274
-2.34826 -1.90605 -0.157932
0.437725 -0.393681 -1.04323
0.548389 -0.687428 -1.5396
0.58012 -0.671497 0.375149
-3.25223 2.14361 2.90957
1.96663 0.464657 -1.96482
1.5171 -3.03392 3.10123
-1.45079 -2.58521 -1.36757
1.00222 0.71069 2.79331
-1.26486 2.13103 3.1975
2.11274 3.29665 -2.7759
-2.46602 -2.58714 0.365955
-1.0019 0.854305 -2.85701
2.37696 -2.13284 -0.524784
2.21919 2.451 -0.916706
3.25808 2.7343 2.55167
-3.24729 1.63359 3.05328
-1.61113 -0.91666 3.47179
-2.88517 0.636272 0.646946
-3.22321 -1.42886 0.242443
-2.99539 0.841816 -0.528255
1.9061 -0.580975 1.42014
2.05281 -0.0432777 -1.7929
-2.0075 1.95854 0.609791
0.611324 1.26815 -0.474743
-0.37254 -0.0481911 -1.80779
-0.386608 -0.325642 2.82952
-0.982166 -0.56921 -1.62268
-2.87075 1.35519 3.01731
0.375408 3.00555 -1.94708
3.38269 2.78606 1.89846
0.735477 -2.74486 -2.74987
3.47811 2.69677 0.210575
0.552364 1.21405 -1.36642
3.08134 2.21027 3.43727
-2.26198 0.28606 -0.678272
-2.49981 2.91724 2.99981
-1.11877 -1.53672 -1.10494
-1.63699 2.01665 -2.28528
-0.580349 2.14962 -2.81527
-2.21743 -1.01051 2.97451
-1.96357 -1.69517 -3.30588
1.78254 -3.49523 2.92643
-2.65123 3.51841 0.0731316
-3.28131 0.00342941 -0.252132
0.575947 -0.982578 3.03765
0.0402184 -0.240841 1.88754
2.47081 0.79488 -2.18471
3.18925 -2.85942 2.83566
3.3777 -1.49269 1.44974
-3.25438 1.93068 3.44295
-3.02473 2.71697 -1.78775
-3.16565 -1.78214 -2.27926
0.443012 -3.53514 -2.8282
3.1946 -3.18265 0.710766
2.69671 -1.92843 2.73191
2.04872 2.18305 -0.0444679
2.86773 -1.84408 -2.78512
2.16785 -3.44062 -2.64083
-0.449757 -2.7869 0.402012
-0.542339 -3.47654 -1.73466
0.673626 -3.19539 -2.55323
2.9299 -2.2164 -0.799831
-3.43383 -1.84652 -0.331249
1.28065 2.13202 0.0216331
0.477024 2.25927 1.62873
-3.10298 1.42045 -0.255566
-1.88438 -0.0663643 0.904072
-0.989674 -0.734173 1.99899
2.41606 -2.63367 2.21581
-2.85414 0.452106 1.74298
-0.87183 3.4453 3.08313
1.33206 1.58339 -3.20063
-2.53473 0.445942 -1.51162
2.02244 0.547642 -3.44694
-0.416172 -2.23906 2.34787
3.33198 2.24169 0.70097
0.70052 2.14243 -2.90093
-1.36784 -3.27748 0.368618
-3.21938 -0.263439 0.738667
3.05914 -1.38292 -1.34476
2.07492 -0.233334 -1.96681
2.40982 2.43037 3.15212
-3.16914 0.226894 -0.469288
-3.08055 1.69589 -2.98899
3.27104 0.182796 -1.69252
0.436474 2.77034 -3.51818
0.539265 2.56679 3.15979
-3.15947 0.731777 3.41784
2.11473 2.36766 -0.381138
-2.76556 -3.38726 2.23967
-1.19683 3.20742 -1.5292
-1.11206 1.7468 -3.16618
1.42237 0.0892754 0.0644341
1.96891 0.455669 -1.77521
-2.25914 0.910656 1.4113
-2.24179 0.114346 1.64611
-3.14935 -3.51653 0.145557
-2.79886 1.55827 -2.6582
0.355534 1.93434 -3.35789
-1.47215 -0.0182762 -3.20961
0.00236893 0.219883 3.53334
0.371723 3.02677 1.21279
-2.63119 -2.15265 -2.23347
-1.40268 2.80526 1.75773
-2.52691 2.23863 -1.39896
2.12292 2.9832 3.25092
-1.26706 -3.32593 3.26992
0.0784645 -1.93975 0.760845
0.256107 -1.20308 -0.372166
0.582027 2.15618 3.14509
0.0480156 -1.85151 0.297626
-2.27473 1.15458 -0.21114
-0.972668 -1.00923 1.17175
-2.75047 -0.6367 0.441471
-0.613895 1.49615 -0.855434
-1.43032 2.50477 -1.40776
-1.22775 0.560345 -0.198162
2.53682 -3.24224 1.39762
-1.37088 -0.160061 3.19827
-1.29314 -3.43949 1.81891
2.54002 0.146259 2.97113
-1.20665 -3.34126 1.59018
2.96881 -2.08046 -3.4864
-0.125248 -0.0494041 -0.587566
3.02304 0.735661 -3.15876
-1.92026 3.12548 3.34973
0.885296 -0.840374 0.374538
-1.78443 0.935596 0.136013
-2.12169 -0.0631218 3.51149
-3.37013 2.56971 3.07572
3.13653 -2.25896 -0.313557
0.659359 3.28478 -0.651096
0.708492 -1.98922 0.803982
3.12465 -2.55594 -2.78096
-2.56965 0.322529 0.958424
-2.75546 -0.189968 1.54837
1.15461 1.89349 -3.35935
-1.77672 -1.28856 1.11178
-1.80077 1.46254 -3.01869
-1.26059 2.34457 3.08656
1.42958 2.50998 -2.70794
-1.75705 2.57916 -3.49051
2.05065 -0.297016 -1.94419
-3.26584 -2.65587 -0.964603
0.696301 -3.06676 -3.17761
-1.29086 -2.63269 -0.363857
-1.64649 -2.38443 -2.0059
2.46901 2.7739 1.24107
-3.08521 -2.53836 -1.36374
-3.53418 -0.803593 -2.5547
-2.2384 0.939541 -3.11207
-2.19337 -0.166416 2.47081
-0.133846 1.61206 -1.89356
1.90527 0.127178 -1.0139
1.73138 -0.134945 -0.0769386
-1.16801 -1.97418 0.294086
-0.170193 -0.261318 2.44519
-2.99647 2.62773 1.68355
-0.824673 1.02939 2.68073
0.624348 1.47972 -1.6584
0.515995 1.94925 -3.25439
-0.548733 2.71457 -0.417088
1.09324 3.52492 -2.34056
-2.988 -0.144459 0.79034
-0.0612221 -1.30654 -1.88014
-3.30267 -3.11069 -0.850597
2.67805 -0.743168 2.42362
0.826069 3.09036 0.983997
-0.0287361 -3.44165 -1.05396
2.31659 -0.2626 -3.10978
2.06591 -3.17379 1.8432
-2.41852 0.877743 0.490421
-1.22355 3.33273 1.47981
2.57051 0.358624 -2.732
-3.37697 0.906155 -0.503002
-0.692036 -3.22242 0.390026
-1.33577 -1.98955 3.18239
2.65195 -2.84703 2.2054
-1.93754 1.98275 3.29929
-1.0436 -2.11333 -0.498844
-2.73594 3.20697 -0.668911
1.75821 1.20554 3.21255
-0.829334 2.32255 2.47793
-0.0257988 -2.96834 -0.698978
3.47492 -2.93336 -2.86017
0.329411 -2.7748 -2.54705
-0.555546 0.536884 -1.00107
-0.885677 2.73665 0.155613
-1.65374 1.32125 -1.39717
0.851139 -3.15182 -0.506779
3.18595 -1.1917 0.164661
2.86296 -0.923916 -2.16533
1.80536 -2.70124 -2.91013
-2.42915 0.00495529 -2.34294
-2.2856 -2.55638 -2.27258
-0.297123 -3.14881 -0.511845
2.23734 0.184322 3.02876
-1.6744 3.16431 1.69806
-0.0678444 -1.78872 -0.516216
-3.11016 0.0930824 -0.664318
0.0582237 -3.12313 1.67952
0.89661 -3.47271 -1.77993
1.52201 2.39397 -0.945644
-3.35646 0.663799 -3.47622
-2.0935 2.23837 -3.02888
0.398373 3.4883 -3.17397
-0.640217 -0.876171 0.545887
-2.47769 -1.70618 0.174664
1.00982 0.154957 2.38967
-3.19004 -2.44842 -1.5846
3.02501 -2.55486 -0.172192
-2.82227 1.0389 -0.641186
-0.764194 -1.60003 -0.782749
-0.704884 -3.14536 2.88477
-0.730045 -3.4981 1.5876
-0.900295 -2.58788 2.00856
3.18113 2.34603 -2.40315
0.288441 -1.82972 -1.10561
-0.857426 -0.303692 -3.48619
1.09351 -2.82941 -2.39907
-2.61422 -3.01573 -1.95021
0.748318 3.013 2.62422
3.5011 -3.3448 -3.04316
2.85034 0.42654 -3.1848
1.37059 2.72538 -3.14736
-0.156384 -1.07202 -1.1997
0.444187 1.56322 -2.92102
-3.19696 2.20881 -1.74703
3.39164 -1.03828 1.48481
-3.07478 1.10801 1.65912
-1.48946 -1.33401 3.17893
-2.93259 0.0554924 2.6564
-2.44021 -2.73172 3.31532
-1.62129 -2.76616 -0.325489
-1.23311 3.0879 -1.13565
1.10272 0.922962 0.796055
1.18541 -3.30077 -0.176258
-3.09715 1.14714 -2.03479
