ply
format ascii 1.0 
element vertex 1835
property float32 x
property float32 y
property float32 z
end_header
-2.82572 3.25728 2.56131
2.23939 -1.02155 1.5402
-2.81257 -1.34489 1.15789
3.2855 1.25788 -0.811642
1.43445 -1.04063 2.55377
3.10053 1.93377 -1.18472
3.31673 2.01236 3.10776
1.1331 -2.53065 -3.14573
0.228397 -0.83083 1.73617
1.16498 -0.149906 -0.940945
-0.341053 -2.49762 -1.2192
-2.33638 -1.7878 0.762974
3.35704 3.45531 -3.11745
-1.52195 -1.8928 1.67596
-1.50371 -2.67465 -3.43202
0.847103 3.29534 1.50547
-0.112484 2.86033 -0.549511
1.27732 2.64153 0.455372
-1.05385 -0.292721 -3.44281
1.54074 3.47121 -0.0571785
-2.74581 0.568844 0.448925
1.5527 -2.30774 2.19666
1.97078 -1.10859 1.58462
-0.420605 -1.8189 2.69555
0.151096 0.662876 -3.04645
-1.87896 2.6947 -3.28665
2.10706 -0.525547 2.5774
-1.50492 -3.17356 1.15158
-1.944 1.63929 -2.20848
1.53435 -3.48191 -2.80462
-1.55226 2.06255 2.29976
-3.42295 2.32046 3.52755
2.16539 0.337627 -1.6484
1.32541 -0.758938 1.06824
1.81449 1.82418 -1.80442
1.53156 -1.56026 -3.17707
0.0416145 0.564495 -0.16708
-1.34233 -0.863979 -0.336926
-0.0152855 0.634823 -2.23317
0.715626 3.22635 -1.71135
-0.520153 0.693356 -3.18434
-1.05996 -3.39444 2.67166
1.82718 3.2574 -1.05806
-1.17192 1.88726 1.18672
0.0273781 0.145321 0.475361
-0.145969 -1.57573 1.91882
2.69067 -3.11152 -1.05222
-0.181789 0.465633 1.08752
0.588764 2.12702 -1.34501
2.41294 -1.4238 -1.65419
2.76414 3.29554 2.5747
1.36845 -1.29196 2.18399
-2.22515 2.18362 2.90586
1.96529 -0.0565453 0.725773
-1.6267 1.77525 -2.66444
-2.24341 -2.26472 -0.236446
-0.291912 1.12484 -0.344242
-2.27174 0.27998 -3.41414
-0.0812111 3.10191 3.24841
1.80014 1.15514 -2.24274
0.307491 0.0325508 -2.48273
-0.0440559 -0.270657 0.760845
-1.20555 -2.96955 -1.12288
2.52394 -2.19098 1.82429
-3.20784 -2.76123 -0.467808
0.0912437 -0.85239 0.803005
3.28254 -0.092083 -2.1395
2.87211 -2.91953 1.1442
2.05317 -2.18755 1.71058
-2.7251 1.26677 -0.669819
-1.6723 -1.00044 2.36645
2.09227 2.84259 -1.97155
-3.09797 -1.26882 -0.405575
1.73005 0.529354 0.938976
-2.2733 0.517765 1.71328
1.53343 0.845455 -2.20646
2.92946 -3.13065 1.237
1.00631 3.15561 1.32119
-0.818645 1.96037 2.66917
1.51525 1.47801 -0.131405
-0.185642 2.28844 1.87188
2.37834 -3.45121 2.17893
-1.56277 3.17659 -3.15724
2.37992 3.08235 1.90765
1.55767 2.27686 -1.64193
2.35494 -3.53197 2.73906
0.0564003 2.53699 2.61213
-1.68976 1.39911 2.2322
-2.55613 -1.13012 0.657032
1.31619 1.58677 -1.93231
-0.347469 -0.965321 -3.1794
-2.23589 3.38457 -2.09507
-1.38941 2.22738 -2.98583
-3.01729 -3.40274 -3.43901
-1.65551 2.51271 1.84156
-2.45198 0.00304031 2.84513
3.16386 -1.70937 1.31477
1.32871 2.88256 -0.821659
-2.08161 -2.34273 2.58376
0.521618 -1.89514 0.103184
0.87775 2.42477 -3.39767
1.7864 -0.458233 2.99062
2.3361 0.309597 1.15065
2.90081 2.45572 1.28344
1.20684 2.44215 -0.271198
-0.0153847 -2.74889 -3.33551
-2.23615 -2.19715 -1.50934
1.47773 -2.56883 -2.69413
-0.00586319 2.29541 -1.50132
3.10104 -2.32173 0.607258
3.2389 1.73542 -0.503506
2.16217 -1.45417 2.04198
-0.222713 -2.20331 -0.183956
-3.00663 3.13651 -1.79558
1.25771 1.96997 -1.88897
0.925922 0.64127 -1.10232
2.4203 -2.90965 0.704243
-2.80936 -1.14208 1.67095
-1.30696 3.33937 0.899014
2.30401 -0.20203 1.58101
-0.735027 -0.636524 -0.750919
-2.7604 -0.46497 1.33044
0.0593681 -1.83833 2.13085
2.79932 1.94268 2.20001
-2.62518 2.47158 0.634441
-0.723782 -0.338055 -2.25982
3.516 -2.94767 -1.16575
2.11959 3.47635 1.2277
-1.04874 -2.86854 0.499722
-3.00327 -1.17179 -3.23784
-0.218655 -1.40331 -0.870647
-2.95556 0.865383 1.6681
-3.36025 1.64052 -3.23758
2.37529 -0.835644 2.24063
-0.525799 -2.10367 0.644871
1.2181 -1.72513 -2.22872
3.05606 1.08662 -2.17266
0.748234 1.53527 -2.23185
-2.81939 -0.412487 -2.09667
-2.5217 2.07431 1.26708
-0.38863 2.60657 2.86749
-1.78788 -1.67943 0.197338
-2.02173 -1.09946 -2.22949
3.22262 -1.45599 -0.0614128
0.331959 -3.14804 1.37045
1.63877 0.861691 3.18085
3.46983 -1.98756 1.20012
-2.82936 -2.46703 -1.33196
-0.390499 1.28492 1.79109
-3.19077 2.00106 -0.201954
2.68044 2.48308 -1.66273
-1.18957 -1.9729 0.193371
0.116474 -0.225239 2.62944
-3.01229 0.756748 -1.89389
1.8937 0.443836 -1.5064
2.0072 -1.75974 2.359
-0.860027 2.88276 -3.16409
1.34355 2.81705 -2.09558
-0.932713 -3.07966 2.19306
2.40087 0.0653725 0.658588
-2.7974 -0.121677 -0.925678
0.931507 -0.976772 1.63696
-0.506397 1.36919 -2.65563
0.603428 -2.58168 2.63665
-3.43851 -2.59025 -0.455044
2.45603 3.30716 1.32075
3.29566 1.77883 1.13616
-2.33546 -2.61673 -0.11414
-3.20975 1.73053 0.341732
0.984371 -2.73771 3.41082
-2.47684 3.19869 -0.246387
2.16384 3.40501 1.78056
3.04374 0.269169 -0.917599
2.14486 2.76649 0.504436
-0.845715 0.834385 1.44972
3.47876 0.931408 1.22135
1.07938 -0.679913 -1.06717
-1.57029 -0.919788 -0.148373
1.77516 1.28028 -2.48519
2.65045 1.07425 -1.68737
-1.66329 -2.00872 -2.55603
-2.41826 -0.950031 -2.68655
-0.332142 -2.85354 1.11815
-3.36324 -2.34533 1.34911
2.0902 3.33506 -1.35204
-0.223988 -1.578 2.58309
3.24437 -1.16659 -1.63236
-0.971348 3.44832 1.98339
1.079 -2.18932 -0.803677
2.39535 -2.9497 -3.26496
-2.69621 3.23629 -1.73815
-1.84723 -1.96254 1.31554
3.27465 -1.37708 1.99753
1.08822 2.82631 3.18773
2.7399 2.46679 3.45545
1.78746 1.02146 -2.1899
3.15882 -2.26988 0.179043
1.60667 -3.09285 0.560017
-2.73254 -0.528667 1.90623
-2.99378 -3.51702 1.96025
-0.196392 3.41387 1.66101
-2.9482 -3.34969 -3.36888
2.58487 -1.66138 -1.74224
2.70525 -2.45408 -2.45146
2.09335 1.63786 -3.05201
3.43898 0.842228 1.50498
0.550678 -1.43766 2.77063
-2.42484 -0.814381 3.21331
3.01693 -3.27506 -0.382702
1.90983 -2.00388 -0.896
0.035305 -1.46212 -1.54948
-0.329853 1.3452 -1.36364
2.46344 1.93254 0.978703
3.01571 1.45005 2.06015
3.49923 0.0879555 1.16248
1.93686 -1.35423 -2.06264
0.640141 -1.98259 0.503414
0.786106 2.10362 2.69275
3.40712 2.6825 2.95323
-1.02441 2.63208 -2.58619
1.96164 1.00637 -0.04459
-3.46934 -3.02567 -2.76674
0.513081 1.18001 -3.36973
0.0377007 -0.423893 1.08404
-2.86717 -0.943722 -2.36354
-1.92609 -0.511845 -0.182232
1.58104 -2.64234 0.838894
0.738262 1.53334 -0.124836
0.624142 -1.74791 -0.977871
1.04168 -1.87632 -2.41314
-2.53845 1.63481 2.12877
-0.76965 -0.470898 -3.43244
-1.13566 -0.93652 0.751293
3.48391 -2.95897 -3.20813
-2.41516 0.0824471 -1.14814
0.40633 0.218998 1.34374
-2.82212 1.82844 2.23693
0.588573 0.873951 0.702923
-3.45665 -2.45514 2.49055
-2.33426 1.70454 -1.9213
-3.27284 0.210682 2.71723
-3.16974 0.675953 -1.2892
1.11708 2.91002 1.30981
0.91267 -1.76117 1.35456
2.76825 -2.34461 -2.09853
1.57646 -1.75605 1.656
-0.253956 1.654 0.417095
-3.08657 3.36741 -2.7763
-3.13155 -0.111362 -1.6959
-2.04913 -0.564289 -2.5269
-2.86744 1.10518 0.687504
-1.15292 1.36787 -2.70389
3.16061 1.20185 -2.3294
1.97963 -1.74842 -0.555042
3.41664 2.69979 1.10407
2.00529 1.40069 2.88356
-1.11315 -0.558384 2.00203
-0.353916 -3.34787 1.30209
1.48571 -3.43072 -2.34481
1.96254 3.51252 1.09462
-1.41731 -2.07215 -1.33574
0.414333 -1.93586 3.03585
1.62046 0.446751 0.702168
-3.00193 0.540012 1.95747
1.63768 -1.01589 0.589909
1.45388 -1.6666 -1.54493
-0.0796242 -3.19684 2.43222
-2.84488 -0.774456 2.08806
-2.18597 2.40716 2.19287
2.44419 0.825527 2.63804
-2.9589 -1.27929 -2.96964
-3.45858 1.83894 -0.901783
0.247311 -1.28226 2.54869
-1.33075 3.34192 -0.446835
2.79469 3.34372 2.07281
-1.81759 2.44586 -2.66114
-3.45272 -0.167606 -2.32244
2.17087 2.75649 0.906818
0.296398 3.44714 -0.753368
-0.601093 -2.27436 -3.46338
0.432987 -2.36571 -0.207127
3.06674 -2.32089 -2.43554
2.07989 -1.24393 -0.714077
-1.43429 2.0071 -0.907688
-3.42883 -2.391 -1.09951
-2.55443 3.40741 -2.721
-0.341343 -1.94572 0.646931
-2.97006 -1.86291 -0.132114
-0.187893 3.31168 -0.752323
0.352451 0.54073 1.50885
3.14904 3.47517 2.14685
-2.82203 -0.159191 3.3615
-0.00056839 -1.1598 -1.94978
2.09546 -2.14726 -3.01003
-2.53958 -0.0460167 -1.8655
-1.25686 0.060688 -1.99363
2.3938 2.04179 0.064373
-0.805668 -2.3669 1.20518
1.97754 -1.80143 1.98133
-0.580959 1.0144 -1.54529
-1.96964 -2.7005 -2.13747
-1.67549 -3.08699 2.23887
-0.621548 -2.90529 -2.45646
-0.0960426 0.629673 -1.6
1.04218 -1.34221 1.88951
-3.48698 0.121929 -1.11715
-0.418888 2.40061 -3.1427
-2.74924 0.727055 -1.97407
2.23581 3.45692 -0.771778
-2.84502 2.89893 3.24634
-0.446957 -1.74938 -1.98969
-2.27543 0.816517 -2.07296
-1.72818 2.14475 -0.442715
1.20736 -2.01233 3.19068
-0.970478 1.89534 -0.687069
1.44791 -0.598011 2.97039
1.84074 -1.08127 1.30365
2.87039 2.03537 -1.50483
-1.43692 3.28985 -0.583439
-0.726116 1.99012 -1.75186
0.819729 3.14882 0.0342979
1.75049 -1.36548 -3.21653
-2.22776 -0.105381 2.46375
-1.57261 1.70198 -2.61593
0.744038 -1.15802 2.81495
0.178898 2.40704 -1.3186
-2.05298 -0.212399 1.60385
-0.022274 -1.43901 0.103687
2.39801 -2.10415 -0.673809
-2.88939 0.994457 -1.21922
1.14863 3.27206 -2.13774
0.935818 0.0244408 0.0323067
0.864033 -1.7606 3.46246
1.25182 0.547176 1.09709
-0.000583649 1.97828 -2.59646
1.68454 -0.813213 3.34611
-0.24715 2.90122 -0.933636
-3.21081 -3.21911 1.16289
-0.349087 -0.237667 3.06246
1.43541 -0.375195 0.521381
2.8332 -0.26086 -0.273907
-0.670025 -3.17958 3.28607
-1.27491 2.29177 -2.54188
-2.71336 -0.911541 1.00901
-1.77429 3.344 -0.548237
-2.49553 -0.19212 1.64227
-0.425442 -2.04312 0.476139
-1.79808 2.24527 0.792561
-2.27116 2.03817 -2.51245
1.25394 -1.84645 0.11607
-3.08731 -2.94657 2.85893
-3.33678 2.89035 -2.85618
-2.87494 -0.315205 2.43931
2.66961 1.4136 -2.00776
-1.94598 2.23577 -2.1993
-2.83924 3.46521 1.14412
1.17243 -3.09767 2.10472
-1.10236 1.01242 0.282635
-0.0792809 2.21806 -1.21473
-3.49874 2.95062 1.47436
2.89572 0.669025 1.53151
3.04325 1.11724 0.886333
1.94703 0.784184 -3.49622
3.4748 0.91296 1.9211
-2.79184 0.0470314 0.621342
1.35599 2.63659 1.0192
0.925175 3.33287 0.925251
-2.32772 0.437954 -1.59786
0.461269 2.87113 -3.44715
-2.13172 -0.743687 3.03901
2.40351 -1.23871 -0.359318
-0.7775 -0.878529 -3.30942
0.261814 -1.90262 1.0103
-1.35262 -2.49112 -1.14409
2.27244 -3.08367 2.43847
-0.775707 -1.33998 1.00771
-2.38599 3.01973 0.273235
-0.448315 0.409374 -1.82434
0.640072 2.08537 -3.02057
-0.388271 -1.52071 0.771282
-3.28312 -0.116894 3.0681
-3.05701 -1.24891 -1.87777
1.957 1.50912 0.755138
-2.72262 -2.29641 1.26773
2.71957 -0.645313 1.7196
1.19175 -1.44022 3.38334
-2.60237 1.31961 -3.20353
-0.891178 2.46915 0.741383
0.623791 -1.04651 -1.2406
-2.67228 2.59728 0.774227
3.39955 -1.32653 -3.41002
-1.54557 -1.60593 -1.12339
2.21328 -0.127407 -2.68162
-0.0545158 -1.70594 -1.97432
-2.40226 -1.42484 1.9159
-1.55445 -2.2408 -3.05985
-1.75426 2.48648 1.79529
1.99084 -2.65142 1.19709
-1.78529 -0.538883 3.1543
1.99266 3.08863 2.21605
3.11818 3.42007 -3.17783
-2.07257 -3.3188 -0.248226
-1.75047 -1.32884 2.62809
0.810749 -3.1829 -2.61338
-0.80888 -0.2337 -0.502689
-0.865009 0.89957 0.792042
-3.13707 2.34883 0.21117
1.59556 -2.94096 0.563465
1.21433 -3.48565 3.0283
-0.636974 -2.26722 3.04958
0.72073 3.26097 2.93412
3.47622 2.31179 3.15085
2.56878 -2.29631 -2.24533
2.95911 -0.511242 -1.8927
-1.61093 3.30323 1.40913
2.18483 -1.04119 -0.758648
-1.13953 1.62934 -1.94535
2.42765 3.02781 -0.882587
2.92042 0.556019 -0.832706
1.90265 -0.765186 -0.0962105
1.30124 1.60156 -0.902592
1.38474 -1.74506 -1.12633
2.67494 -1.80437 -0.418919
-2.28511 -3.30294 2.07356
2.65955 3.1917 2.84125
-2.16645 -2.48658 -2.26728
0.42374 -2.83728 -3.17348
2.54487 -0.973087 2.85804
-2.35518 -1.08097 -0.121471
1.08414 -2.22789 2.11706
-3.35398 3.21029 1.18309
-1.4766 0.44418 2.44175
1.1082 -1.70662 -1.89816
0.646229 -2.09903 -2.19738
-0.579868 -0.848606 -2.07303
0.688381 -2.2564 -1.02407
0.51862 0.112682 -0.325817
-0.158871 -3.53093 3.23663
-3.34769 2.54948 -1.91169
2.3049 -3.34124 -0.604046
-0.579357 0.746624 -1.4611
-0.673145 0.396358 1.9868
0.432415 3.4553 -2.78717
1.77057 1.02797 -1.35066
3.23307 -2.39315 0.804455
-0.326542 0.562511 2.08358
2.35136 -1.81646 -1.87108
2.05246 2.2377 -2.39829
3.14449 -0.988522 3.15491
-1.52691 -0.800678 2.81739
0.547527 -2.03131 0.0284843
-0.533024 1.92487 -2.11069
0.215343 -2.28381 -2.19093
2.40022 1.68414 1.84076
-0.862675 -0.612644 -3.08793
-2.84644 0.0848885 0.478298
-0.181988 2.76207 2.19738
0.423443 1.04608 1.89954
1.04282 0.0311852 -2.62452
0.32468 -0.359859 -0.421474
-2.71418 2.64877 1.08275
-1.28934 -0.871052 -1.05973
-0.476551 2.13146 -0.339817
-2.70314 -1.72055 -2.19121
-2.25554 -2.85586 1.19986
2.75829 -0.183002 -2.25078
1.42013 0.974277 3.515
-0.747677 -2.74324 0.493732
-0.368473 0.683918 -3.01062
2.74559 -1.8088 1.16506
0.76099 2.5196 -0.253521
3.2368 3.34095 1.87915
-0.170368 -2.01574 0.943256
0.642139 0.511433 2.75824
-1.69353 1.34382 -3.16497
-0.940594 -3.44725 -0.34425
-0.961124 2.31475 -2.90551
-3.53474 -0.332462 -2.64503
-3.00982 3.45539 2.57442
1.15895 -0.980427 -3.30172
-3.16191 -0.770374 2.75341
3.25277 2.99434 2.02702
0.660488 2.16378 3.015
-0.116802 -1.54212 -0.00909805
-0.278049 -3.43551 -1.20081
-3.15783 -1.59351 -1.64434
-2.52781 2.00143 -2.86512
-0.637302 -3.02704 0.337948
-2.13023 -3.02625 -0.274006
-1.89642 -2.03235 3.2811
-2.21035 2.66214 -1.55662
2.82038 -3.03531 -2.62963
3.29985 -3.31808 3.06968
-0.244778 0.346127 -1.00797
1.55813 3.23304 -1.43976
3.44932 0.41946 0.502262
-3.48315 0.265347 -1.56366
0.858517 1.27308 -0.586979
-2.95102 -3.43158 -0.0776939
3.3338 -2.02627 1.42549
-2.29017 0.081028 1.02028
-1.38427 1.40621 1.5205
-0.850124 0.159245 1.20613
1.14563 -0.0764351 -2.51509
3.2414 -3.38856 -2.81758
-0.323689 1.7051 0.605602
2.11637 2.08708 -2.66459
-2.00614 2.13946 2.61221
0.919888 -0.537556 2.71617
-0.190159 0.515141 -2.37745
-2.70542 0.313404 0.707294
1.8188 2.55877 -1.42203
-1.04242 -2.36104 2.27275
-0.0219688 -0.207447 -0.871037
0.164173 -2.59735 -0.724064
-1.76576 -3.42331 -2.55449
-1.42662 0.256725 3.06812
-2.34995 -1.16243 2.14023
-2.70113 0.366962 -2.46467
-2.07486 -2.24868 1.586
2.16796 0.564877 -1.16794
-3.32141 0.863178 -2.67653
1.95505 -1.38537 -2.03385
-2.45152 1.10775 2.29424
0.359951 -2.44976 2.7006
1.80918 1.71814 3.28102
0.809948 2.9561 0.00220871
-0.585354 -2.00606 2.37531
0.953693 -0.352291 -1.32508
-0.995838 -0.0497017 -0.570042
0.839939 1.41097 -2.5407
1.69895 -0.488415 1.3262
-2.87043 -0.274296 -2.59471
2.42752 -2.38659 1.51676
1.59259 -0.302578 3.07072
1.33808 3.06109 1.25332
-2.19525 0.802921 0.673885
3.18378 -0.922665 1.67154
-2.20864 1.4957 -2.21628
1.75685 -1.08614 0.737736
2.21987 1.92174 -1.91864
0.0105324 -0.773853 1.12848
0.419544 -2.14225 -3.21317
-0.599232 -1.47715 -1.06423
-1.06404 -3.11698 1.63691
3.193 2.01115 0.630657
0.331348 0.281879 -1.10196
-1.53264 1.09035 0.979099
0.254795 1.20678 -1.06073
-3.07482 2.53367 1.85685
-0.457928 0.754986 -0.288761
-3.3968 -1.09249 2.47292
-2.60625 2.92176 -3.20487
-0.666759 -0.194233 -1.6783
-2.56538 2.21025 -1.25975
1.60081 -2.92114 -2.31594
3.50257 -3.26368 1.50147
0.94614 0.0713921 -1.47553
-3.18194 2.54247 3.26679
2.21044 -1.27008 3.26493
-1.61386 -0.809368 -0.0474358
-3.20829 1.73642 3.3956
-2.40944 2.34334 2.25001
-0.552204 3.27262 -1.47976
2.19177 -1.46148 -2.33685
3.41136 -0.491329 -2.25427
0.845478 -2.95787 -1.51423
2.90548 -2.52264 2.0927
3.10492 1.95903 0.567822
2.83432 1.78081 2.83327
-1.28047 0.455715 -0.511631
-1.95221 1.84558 -2.84256
-3.23774 2.64101 3.03632
-0.713772 -3.30396 2.2416
0.484913 -0.852444 -2.75542
1.23436 -2.72802 -0.243031
3.25567 -3.38401 0.802822
2.28102 0.465183 1.81572
-0.686687 0.303318 -0.292599
-0.38895 -0.127293 -1.04732
2.10314 -1.36032 2.41211
2.79612 0.894741 1.19034
3.2969 3.47806 0.295818
1.47115 3.24405 -0.00442123
3.25126 -1.00526 2.14685
-0.527302 2.48337 -3.1167
-3.26001 1.1822 -2.96518
2.09124 0.90234 1.50372
-0.736897 -0.352169 -1.7285
1.2195 2.96486 1.67974
0.0960808 -0.959621 -3.21611
-2.24911 -2.39202 0.682346
1.58224 3.40782 0.0930595
-1.95771 2.63737 0.801571
-2.87821 1.57299 2.80003
-2.45938 1.28872 2.74787
-2.42084 -2.77412 0.394535
2.61841 -2.03041 -2.77047
-2.64562 -3.47471 0.881077
2.03785 -1.20789 0.310406
1.82545 -3.52392 2.3545
-0.0277367 1.10769 2.96621
3.06904 2.39412 2.83849
-0.196735 0.909008 2.94033
0.0677605 1.95501 0.445965
-1.25172 2.61234 -1.80085
2.14653 3.15668 -1.57125
2.37978 -2.33151 -0.0661354
-0.274677 -3.24863 0.462872
3.03945 -1.89053 2.2587
1.85842 -3.38822 3.27031
0.757275 2.44095 0.310658
1.06023 -1.65413 -1.36258
-0.0667915 -2.12062 2.55015
-3.15636 1.68636 1.96963
-1.9535 -2.31323 0.514622
-0.52103 -0.0294151 0.603954
3.41655 -1.41842 1.80798
0.343891 -2.57417 2.09488
-1.46476 1.15487 3.20807
-1.72998 0.126972 -3.24749
1.5844 -1.08196 2.72899
-2.84552 3.21085 -2.99249
3.24016 0.203732 -1.57758
1.14244 -3.39859 3.1125
-1.41028 3.51983 -2.73626
2.72921 -2.50101 0.238041
1.00165 1.51349 1.82335
-0.970814 0.862698 -3.28636
-0.298275 -2.32895 0.872234
-0.542049 -0.258167 -3.06814
-1.88041 2.01558 -0.614567
-1.33736 -0.467373 0.0607491
0.0887794 0.222637 -3.27105
0.665745 0.395451 -2.66593
0.933201 -2.52945 -3.21344
-1.36429 -0.404202 -1.71074
-3.07648 -1.21053 2.80648
-3.35912 2.79484 0.13364
0.516834 -0.711506 0.808414
1.98423 1.99394 -3.5171
-2.16587 -2.61546 1.50219
0.898594 -0.960331 -1.50071
1.63126 1.23784 1.72564
2.50087 -2.74073 -1.94625
2.29114 1.46055 0.0598259
-2.95513 -0.141781 3.19116
3.38688 1.49765 -1.08672
-0.546825 1.9567 -2.35923
-3.27394 3.13311 0.464802
-2.25551 0.114414 -1.60861
2.78222 -1.43689 -0.688534
-2.78585 0.400951 1.35485
2.94352 -2.23599 -1.47465
-2.53827 2.93081 0.320156
1.05709 1.36432 -2.28664
1.1809 0.588116 0.575298
3.0979 1.16852 -1.46259
-2.79686 1.48806 -2.57324
1.67166 -2.5943 -2.97566
-3.47248 -1.86453 0.142475
-0.157299 -0.584507 2.7093
-2.86979 -1.86964 -0.425282
0.19109 -0.119953 0.342449
3.51497 -0.711971 0.73772
-2.83902 -0.246525 -1.96531
2.27181 -1.72497 2.15834
-3.25813 2.45964 0.259518
-2.29583 1.49019 -1.78796
-2.26777 2.22886 -1.37854
1.87842 -0.166828 0.292461
1.05219 0.364407 2.71167
-3.44044 -3.32843 -1.6935
-0.0942726 -3.1945 1.19027
-3.4239 0.00030899 -3.05724
-0.853672 -0.0202599 -0.300045
-2.23086 1.14444 0.978703
1.56419 -0.119289 -0.097187
2.77995 -0.373699 -2.14253
-1.66594 1.866 -2.98101
2.16205 2.60195 0.387691
1.80638 0.944836 -2.78344
-3.42266 -2.07032 -3.10814
1.30314 -2.50705 -2.29892
1.24962 1.93422 1.23692
-2.58596 2.04585 -1.85069
2.92828 -2.87517 2.82928
-1.23626 -0.570499 -1.35736
0.624935 -3.07366 1.80448
0.64764 -3.36106 -0.39687
-2.5002 -1.49147 -0.86227
-1.27992 -3.39676 3.08628
-1.38434 1.94515 -2.05139
-0.147732 1.52621 -1.0229
-1.97816 -0.706181 -3.15603
-0.293316 -3.52391 3.42535
-1.53138 -2.10614 -3.51717
0.646793 -2.7134 -0.552135
-1.61608 -0.945934 0.377926
1.99077 3.21453 0.0205879
-2.40703 0.326641 2.06466
-2.85628 1.83016 1.67161
-1.37214 -3.51711 1.08123
1.60868 -1.36592 -1.45991
1.98819 2.49007 2.36944
1.34619 -3.02362 1.84925
2.36455 -0.313221 3.27864
-2.25493 1.69093 -2.97029
1.12671 -1.72963 0.0874977
-2.38823 -0.341984 -0.233501
2.68014 -1.88675 -2.97421
1.2844 -1.29006 1.85967
-1.70172 -0.14262 1.87809
0.373905 1.48896 3.5159
-1.324 -0.437885 2.47043
-2.01028 -1.51705 2.45053
-2.26717 2.83286 -1.39823
-1.23374 1.13006 3.29642
2.38929 2.87885 -1.96874
-1.91156 0.470028 1.693
-1.88205 2.08551 3.34179
3.51316 0.698307 -0.483807
1.3239 -1.55282 2.90911
2.30426 0.280994 0.862537
0.707348 -1.88063 -2.6427
0.0905266 0.330898 -1.15602
2.22783 1.32434 -1.8587
2.45691 -3.47837 3.27508
3.49189 -1.17657 2.6184
1.64935 -2.85463 -0.978924
2.4556 -1.23065 -2.42894
-2.09555 1.42284 2.8049
-3.2538 0.868649 -2.81527
0.612461 -0.342983 2.00126
0.973484 -1.57425 3.12434
3.35299 2.13681 -0.61211
-1.57306 -1.30819 -1.82331
-1.83351 -2.14771 -1.76614
-2.75064 -3.22634 0.0610085
-0.194035 3.26927 0.741917
1.38074 2.38308 2.51499
0.650105 0.771336 -0.12952
1.37037 1.6795 -1.79641
-0.695728 1.96124 1.39614
-1.63874 -0.961834 2.82561
2.28469 -2.52388 1.42689
3.4651 -3.23824 -2.94865
-1.83657 -1.27576 -1.56083
1.22815 0.426266 -1.78344
-2.09728 0.67934 -2.58152
-3.11782 -2.05023 3.33709
1.28819 2.33423 0.0410805
2.4955 -0.551197 -1.81495
0.356113 -3.24818 -3.38925
-0.353809 0.0598106 -0.347363
-2.99427 1.95661 0.664288
-2.9392 0.173946 0.961582
-0.964489 0.103512 -3.38153
0.255787 1.27066 0.580273
2.2098 -1.56854 -1.27592
1.47954 -0.130283 -0.32243
-1.01491 0.755611 -1.52373
0.173855 -2.02355 0.928791
1.32014 -3.06358 0.68433
-2.56276 0.828068 -3.32321
1.10525 3.47798 2.63712
-2.00051 3.48743 -0.724468
-1.84651 -1.9873 -3.15649
2.73748 0.0519295 1.11789
-2.07397 -2.75963 -2.98619
0.607319 2.9857 0.419064
2.08731 0.397892 -2.36086
-1.05125 2.3867 -0.848873
3.16861 0.0250206 -0.908733
-3.22194 -2.72219 3.45487
2.95071 -1.74941 2.8655
-1.30929 2.35956 -3.25367
-1.46206 3.36277 -1.70544
-2.87971 -1.01928 1.88202
-2.86218 -2.34914 2.65792
1.09242 -1.41939 1.57627
2.73528 2.72346 -1.09318
-2.18094 0.74342 -2.24202
1.44586 3.2277 0.786724
0.833378 2.32897 1.60007
1.16334 2.64256 2.85438
1.4452 1.52592 1.1466
2.74348 -2.3189 1.97383
1.08997 -0.777248 -3.1128
0.680546 -0.121426 -1.9264
-1.81053 0.551929 0.189739
0.631824 -1.423 -1.15415
2.39353 -2.75507 3.12481
-0.355282 -1.40048 2.81697
-1.82256 3.0491 1.07859
-2.50371 1.34694 0.653805
3.17842 -1.02525 -1.35581
1.61671 3.42367 -0.139179
2.03945 2.63162 -3.45196
3.11676 -0.34576 -0.569668
-0.229031 -3.20075 -3.08509
2.15236 -1.00756 -1.50437
1.20981 2.62799 -0.723904
-0.0405617 1.48598 0.879337
-2.4975 -1.93665 0.861088
1.69184 -0.223675 -1.3275
-2.1995 0.808147 0.650967
0.665035 0.451031 0.00728989
0.216793 -1.99961 -0.896626
-3.42022 3.04356 1.76133
-3.50159 2.62479 3.09612
-2.00224 -1.67159 -1.97879
0.809391 3.48449 -2.88633
-2.37862 1.15876 3.13518
2.018 -2.94915 -2.337
-3.37685 -0.911114 0.443043
0.277836 -3.28662 -2.28434
-3.25041 -2.48241 2.17041
-1.14331 2.18634 3.17452
-1.91751 -1.66421 -3.38852
-2.88874 -1.5489 2.23999
-1.332 -2.04677 -2.49895
-1.21461 -0.513477 -2.55
-2.14678 3.29963 2.61248
-0.948246 -1.61452 2.66706
2.49852 3.4072 -1.77959
-2.32136 -3.037 -1.0625
2.85276 0.776371 -0.541187
2.49175 1.52968 -1.89038
2.10695 -3.14917 0.980946
1.27958 -2.06296 2.43576
2.31617 -1.94799 -2.14654
2.76989 -0.276264 0.3437
1.31502 3.04466 1.1078
1.44654 -2.63765 3.02881
3.20249 0.41782 2.36866
-1.92736 -0.619198 2.8672
2.06699 0.0631599 1.10804
3.18033 -0.61961 -1.42963
0.0939293 -1.19521 -1.57508
-0.0058403 -2.6238 0.897495
0.851337 2.19132 1.95323
-2.3405 0.971951 -0.85857
2.30284 0.674488 -1.34945
1.2643 -1.54602 -0.451565
1.09743 3.43605 2.96997
-0.102718 -3.49987 -0.184757
-3.06203 -1.8917 3.41394
-0.956127 3.17901 -0.273022
2.00433 -3.24726 2.0673
-1.16552 -0.149609 2.44722
-2.74783 3.38008 2.10301
-0.0708656 0.164074 -0.99239
1.58341 2.35911 3.21763
-1.40369 0.594601 -1.39574
-2.50106 -0.676632 -1.49522
0.849712 3.42452 -1.45956
1.1963 -0.213734 0.652462
-2.61226 0.727955 0.29594
2.45877 3.30736 0.0524025
1.37046 1.24434 -2.63274
-0.593884 3.08254 -3.32
2.41745 -2.20082 1.3796
1.56773 0.732029 -0.328632
-3.36354 -0.220097 -3.26957
-0.323231 1.37993 -0.942478
1.22093 2.4144 -1.58531
-1.66214 0.196766 2.20468
2.63752 -2.67428 -0.602901
-1.37743 -2.28282 -1.36289
-1.00645 -3.35958 -2.65408
0.20908 1.01459 3.43218
-2.47866 -2.11483 -2.30418
0.196423 -3.23291 2.43157
-0.0694237 1.87035 -1.85588
2.99182 3.04234 3.05959
-2.12902 -1.34824 1.40664
3.07937 3.40822 -2.46394
-1.59088 -1.32127 -1.60269
1.58177 -2.7511 -0.349972
1.93141 -0.592999 -0.705837
1.82805 2.93608 -2.22678
3.52759 -0.922184 -1.33789
2.42363 -0.397129 -1.03527
-2.96778 3.33483 -3.23227
3.09552 -0.801945 2.81379
0.434818 -1.34566 -2.6018
2.50641 0.529034 -2.26092
-2.63181 0.0728722 -0.0466576
1.55375 3.01753 0.737774
-3.21943 0.531948 3.14849
-1.91068 -1.07218 2.01723
0.286968 -3.31147 -2.44049
2.25542 3.21984 0.697918
3.02687 1.57611 -0.0346031
1.77332 1.61205 -3.37208
-3.36401 1.17204 -1.18221
-2.0894 -1.46049 2.35054
0.867664 -2.48961 -0.112118
-2.46191 -1.58589 -1.16194
-2.84895 2.97158 2.90554
3.172 -3.3152 -2.23398
-2.80402 -1.69034 -2.54174
1.89762 2.60035 -1.85743
-2.20433 0.788418 3.25422
-2.04088 0.279758 2.33073
0.780628 -0.482456 -0.564579
-0.404362 -0.842747 1.51046
2.48724 0.60339 2.02457
-2.21023 -2.59629 -2.62867
-3.37204 -2.05449 3.34664
-2.07048 -1.89972 -3.50409
-0.0766869 -2.26325 -0.658901
1.0696 -0.531734 -2.1259
0.78828 -2.70147 2.19805
-0.948338 -1.37027 -0.0577278
2.4908 0.592571 2.46354
-0.066082 -2.69415 -1.91475
-0.577045 0.437023 1.69236
0.329823 -0.143085 2.09979
0.140926 1.18222 -3.49023
0.640553 2.34571 -1.85441
3.51719 3.27895 -0.113941
-2.67607 -0.865086 2.35804
3.05751 -3.33102 3.19211
-1.06756 1.46098 -2.2455
-2.13956 3.51636 1.8826
-1.05059 2.47163 2.72399
-3.42557 -0.6618 0.0936623
2.20975 1.76487 3.48611
1.72324 -1.97265 0.600979
-3.19852 1.17199 -1.12066
0.223072 -1.72299 -0.377239
-0.954418 -2.27315 2.29321
-1.82965 -1.41368 2.96591
-0.539623 -0.891705 0.891354
-1.72437 1.57627 0.340366
-2.53592 3.44043 -0.255352
0.561466 -1.67751 2.61838
-0.0197716 -0.567547 0.847721
-1.95433 -2.42514 1.87879
-0.0712624 -3.23744 -0.484753
3.08703 -3.43224 2.32779
2.31289 0.326366 -3.48089
1.21145 2.37567 -0.359043
-1.43273 -2.98952 1.75297
1.91136 -0.525425 -0.73811
-1.87953 1.28574 -1.36503
-3.3285 2.75354 1.49299
1.05476 -0.220524 -3.1419
-0.601986 -3.30764 -2.03151
2.91698 -2.25825 -2.26523
1.70924 1.20602 -2.16194
1.23207 1.75752 1.16815
-3.19432 0.0030632 0.00828171
2.09418 -2.32102 0.554295
-1.71128 -0.750027 -3.03848
0.459225 -2.3742 1.78279
-2.11513 -0.250011 1.0008
-2.25331 -0.0429726 -2.28707
-0.281109 -2.05556 -2.05918
0.989193 0.346172 -0.781895
3.36279 -0.272381 3.42785
0.463589 -2.63049 1.11802
-2.06366 3.13711 -2.41446
1.49435 3.47832 -1.73175
1.99141 2.50515 0.521938
0.706852 -2.74166 2.15145
-1.82788 0.721287 -1.63409
-1.11123 2.60987 1.32666
-0.166683 -3.17897 2.80663
2.05514 0.0754509 0.617268
2.94745 -2.0027 3.34861
0.529934 -2.70726 -1.81742
2.1192 1.29186 -2.21584
3.39116 2.76373 -2.80487
1.37757 1.19073 3.23582
-0.00651169 -0.353397 3.49788
1.36312 -3.18208 1.15182
-0.84576 -1.00624 -0.305653
-1.10648 1.41807 0.0509071
3.04632 -1.81596 -2.94099
2.32758 -3.29635 -1.93998
-3.02537 3.18663 -1.11171
-1.70568 0.64922 -3.35538
-0.506824 -0.767117 3.41207
-1.33835 -0.911488 1.06726
-0.376003 3.4698 -2.82167
-3.29153 -0.604061 -2.00003
-0.0616493 -2.77648 0.52927
2.99298 0.381481 -2.12001
3.05571 2.81054 -0.400433
-2.4198 1.78951 0.306934
0.00402451 0.581554 -0.0419655
0.652363 2.09172 -3.46009
0.528896 3.38976 -1.22349
-2.47119 -0.652599 2.40055
-2.28913 2.54458 2.33482
-0.753628 -1.89877 -0.804775
2.77936 -2.18658 -0.577534
-2.40799 1.2873 3.33948
0.727108 0.744747 2.08267
-3.03331 0.733105 0.336643
1.46026 1.84883 -1.61734
1.00389 -1.21449 3.4781
-2.75514 2.97341 2.80051
2.64914 -0.565044 -0.919437
0.916607 -0.0325127 -2.4422
-3.4237 1.21389 -0.805439
0.00248337 -2.60709 0.543514
-0.725384 -3.36326 -2.23653
-1.17825 -2.23572 1.51194
2.16211 2.49511 -1.29049
-3.52257 2.99733 -2.50901
2.95925 0.390247 -0.187962
3.22422 -1.67321 -1.2819
-1.23075 -0.892818 1.15677
-0.137417 -1.77922 -2.41127
2.06086 2.67292 1.80633
-1.46297 3.25294 2.73478
-0.163967 -0.280109 3.37523
-2.71938 1.99823 -2.92784
0.525661 -3.24737 2.57099
1.02037 3.45028 2.50097
-3.23494 3.46324 -0.644314
-0.981304 -3.18412 1.21801
3.17919 3.04383 3.32891
-3.29943 -1.72245 -1.98584
2.04243 1.14385 -2.38027
1.70986 -0.330822 -2.66286
1.54956 1.20993 0.0607491
2.15725 -2.48957 -1.47656
2.19271 -2.20523 -0.188396
0.626331 1.32415 -0.80547
3.51755 -1.19101 -0.877766
1.66821 -0.890415 -1.05816
0.929768 1.132 -1.54987
3.47946 0.775654 -0.268604
-2.43634 1.01175 -2.66029
-2.09549 -0.0131645 0.0126076
1.5008 -1.83884 -2.313
3.02796 3.24625 -1.79885
-1.22779 1.33615 0.531445
1.50228 -0.538486 -1.67994
-2.44284 -3.44769 1.13276
0.0345345 -2.99749 -3.29319
2.48838 1.67444 2.37435
-1.31575 -0.931324 -0.917347
0.0276756 -1.51921 -2.97294
-3.49525 -0.951839 0.549427
-1.80453 0.488209 1.71431
-0.067852 -2.07834 0.893208
3.46731 -1.58592 -1.30617
-0.748165 0.190014 2.15906
3.38832 -0.843243 1.71509
-3.4404 0.249454 1.72132
1.93766 3.28771 -0.139767
-1.51522 2.24056 3.46444
-1.48444 -2.14254 -2.12212
2.60052 0.888851 1.46157
0.247478 0.39732 -1.58575
-2.39485 2.12832 0.871441
-0.6973 -0.475063 2.28924
-2.07377 -0.543285 -1.05628
-3.42603 1.71227 1.1042
1.83083 1.56505 -2.18188
-0.844471 2.12837 -1.42971
-1.44738 -0.00131607 -3.2565
-0.0339622 1.48719 -2.39532
-2.10792 -3.53279 1.49725
0.310047 2.07145 -0.640965
-2.88586 -1.2166 -2.04818
2.4071 -0.0759163 0.48048
-2.18471 -3.30875 -3.13015
3.45502 -2.3788 2.11765
-2.79421 -2.2693 0.615353
-1.2202 -2.974 -1.32363
-0.472973 -0.814754 2.21059
0.135426 0.741589 1.16224
-0.902859 -2.82791 0.633175
1.99171 -0.93211 0.169094
3.47907 2.38166 2.48803
0.8922 3.03133 -0.655239
1.29758 1.9029 -0.428455
-0.652119 2.7219 0.196461
3.49877 2.64139 2.4627
-1.89221 -3.22017 2.49241
-2.74897 -0.904827 -1.85788
1.417 2.15773 2.41925
-1.48536 -0.242374 2.59506
2.21926 1.85849 -2.4044
1.63994 0.314663 3.51279
-2.55083 -0.273617 3.00859
0.0244331 -2.91695 0.844135
-3.31464 1.38435 1.03051
2.15178 -1.8033 -0.395451
1.10865 -2.37188 -0.0800819
2.2545 0.271442 3.01881
1.13821 1.05801 1.1092
0.66592 -1.06053 -2.66871
1.79705 0.457829 2.19349
2.77431 0.14156 -1.02738
1.71555 -2.28585 2.70272
0.0241508 -1.83296 2.78949
-2.48088 1.72701 1.63831
0.127392 1.41609 3.37054
-2.48822 1.03233 -2.53688
-3.00495 -1.39455 0.738285
1.63978 -1.67559 -2.27105
2.97479 2.46634 -0.327862
1.10093 -0.403271 -2.40557
-2.99379 -1.67356 0.739712
3.24446 -2.9666 1.9894
1.96661 1.75267 3.16016
-0.462429 -1.75872 1.35163
-0.627422 -1.23587 -0.767811
0.83942 2.89524 -3.27102
-2.48964 -3.12852 -0.661846
-0.225163 -3.12975 1.1981
2.98251 1.51375 -0.402905
-3.49041 0.421192 3.19754
0.78484 -1.01341 -2.01155
-1.29311 -0.471668 -1.97444
-1.66848 -1.29455 3.31376
2.68687 -2.86348 -1.5123
-0.616474 1.20963 0.787357
-0.88377 -3.48514 0.14706
1.98992 0.357998 0.0222588
-0.87933 2.40389 -0.103771
3.2533 -1.88862 -1.12555
2.91531 -2.97346 2.83117
-3.16359 -1.92833 -2.24958
-1.6025 2.39204 0.814281
-1.82427 -1.96842 3.05526
0.198963 -0.101368 -2.87556
-2.08103 0.0499687 1.8696
1.06975 2.43721 1.38818
-1.97534 -2.5139 -0.789356
1.45642 3.47973 -2.45282
3.33459 -1.46695 -0.805904
3.09842 -2.28099 -0.243832
-2.6867 -3.43303 0.831554
2.1313 -3.06109 0.156246
1.11921 -1.65987 1.72336
1.77919 0.519581 -2.44535
-0.41856 -3.3488 0.608334
-1.56591 -2.42611 -1.0218
0.648449 3.17917 0.999828
1.19935 -2.3317 0.412212
-3.14209 2.12844 2.4808
-0.382198 2.9275 -2.33573
-2.08618 2.49038 -2.76504
1.6056 2.8074 -1.82241
-0.738384 1.40316 0.0532494
0.351795 -0.0131569 -2.9627
-1.57541 -2.30132 -2.30779
0.406513 1.81565 -1.19837
-2.12919 3.25346 -1.55473
1.28674 -0.16544 -0.88271
1.23201 -2.50162 -1.82161
1.9 -2.63999 -2.96146
2.67049 0.513348 3.06446
-3.21927 1.43089 1.80451
1.36951 -1.03086 0.140324
1.41053 1.76629 -3.40837
2.63827 -0.949261 -2.70597
-1.62745 0.479053 2.11341
0.353359 -2.64997 1.29952
3.47437 -0.77544 -2.40145
-2.41459 -3.02423 -1.36754
-1.84052 1.74331 -1.00381
-2.84341 -0.424046 3.51326
2.49663 -0.820904 1.40861
-0.898579 -0.504642 -2.68959
-1.30323 -3.20248 2.61223
0.52634 2.74358 -2.40438
-1.4276 1.3145 1.61021
-2.66362 3.22259 3.49578
-1.52954 0.508602 -0.815197
1.10664 -0.0843773 -0.303898
-3.4327 1.03656 -1.62794
-3.45498 2.73158 0.951733
1.95735 2.89189 -3.40471
2.80329 1.85299 0.0943718
1.34817 -2.11294 0.427425
3.47933 0.119366 -0.896343
1.554 -3.42164 -2.64919
0.982433 -0.313709 -3.49395
3.17096 0.558208 0.55019
-0.200291 2.03239 3.46953
1.7073 -0.396503 0.970562
-1.40831 0.174511 -0.365208
-0.277485 0.255062 -1.00885
2.82061 -1.85494 -2.22322
-0.819317 -2.58718 -0.800625
2.81987 3.29652 2.32246
3.1744 2.7085 3.43635
3.21599 0.726971 -0.944706
0.698833 -1.35794 3.14904
0.632832 -1.72252 1.64589
-1.46395 1.61272 -1.81796
1.17456 -0.747326 1.89209
-2.90165 2.37989 -1.9202
-1.58933 -1.96494 0.760395
0.613766 -3.21168 1.70874
-0.599308 -0.495464 0.937916
-0.69849 -1.74294 0.110882
1.36052 -2.10407 -2.2295
0.974026 -1.95543 -0.0519066
-0.44743 1.74713 1.22929
1.27015 -1.15557 -0.225338
-0.905117 0.38419 2.03106
0.710217 -1.5086 0.343601
-2.06492 -0.874714 1.38238
-2.89171 0.539677 1.70623
1.58174 -2.38209 -1.85658
-1.37473 0.554134 -0.0639839
-0.0686913 -3.2117 1.83567
2.88312 1.68435 2.88396
0.045063 -0.40897 1.09555
3.35526 2.67913 2.9437
2.31897 -0.118069 0.792355
-0.872967 2.51235 2.28747
-2.02612 -0.312969 -2.12278
2.68383 1.62583 1.95243
-2.70828 2.26965 2.57406
1.23146 -0.215961 -0.407337
-0.46841 1.41303 -0.615322
-1.11998 -2.1912 -1.4665
2.97929 -3.37542 1.12825
2.38745 1.20517 -0.259968
-0.887539 0.493084 3.1575
-2.1356 -0.723484 1.6025
-1.25466 2.40727 -2.77782
-3.36957 3.38487 2.38354
2.74002 2.53317 0.585842
-0.734661 -3.24246 -2.69747
2.18555 1.52453 2.25109
-3.3483 -2.47941 -2.47564
0.783665 -0.595676 -2.31553
-3.01184 -1.68373 1.89337
3.14938 -2.83181 -0.149082
0.684528 0.284367 2.13115
2.44224 1.6843 1.00289
0.758434 -2.63771 0.852222
-1.19126 -2.47174 0.318043
-0.353191 -2.79907 0.611118
-1.63763 -0.53001 -1.39988
-1.10955 -2.41181 -0.875576
0.578648 -1.22458 1.53247
-1.06352 2.56281 3.38427
1.79112 -2.98456 -3.5149
1.38674 -3.37072 0.305004
-1.14591 1.31753 -1.07804
-3.36103 0.224239 -0.180218
-0.0392723 -2.55286 0.351757
-3.4955 -0.740398 0.556408
-1.89167 1.91013 -3.50914
0.236477 -2.79485 -1.38541
-1.76659 -0.368862 0.393734
-2.44967 -3.32575 -0.578991
-2.96085 -0.385548 -0.559834
1.34787 -2.12996 0.0731697
-3.26571 2.26049 -2.14483
-0.442204 -1.95276 1.08313
2.91327 -2.31008 1.53399
0.934147 1.18618 -1.74195
0.42873 1.22622 -3.36735
2.04704 2.87008 -2.62667
-1.62658 -0.428974 1.00819
1.79815 0.808155 0.686161
-2.82903 1.3622 3.30433
0.779675 1.93689 -1.36116
2.17038 -0.782589 -3.16802
-0.813847 -0.51276 -1.58525
-1.8154 2.04876 -0.359791
-0.0218086 2.42649 -2.70914
-0.385441 -0.706707 1.52079
0.991611 2.72574 0.855343
-2.06755 2.23725 3.43009
2.15415 -3.45668 0.170895
2.92295 1.87701 -2.00244
-2.50557 -3.48755 -3.1329
-2.13805 0.295841 -0.379955
0.280422 -0.601131 3.111
3.45617 2.12056 1.62423
-2.32032 -3.23037 0.515186
2.736 -0.248463 2.8122
0.523998 3.36982 3.00241
0.418552 0.294079 1.17231
-1.94609 1.76207 1.25116
-0.944805 -0.151134 0.0608253
-1.07399 -0.763721 -0.423008
3.08159 -0.265568 2.87655
2.65706 1.6001 -1.26011
0.21394 -1.65501 -2.20691
-2.33822 -1.73438 -2.43356
-3.06156 -0.519169 1.85351
2.94457 -0.318699 1.15598
0.581341 -3.33023 -2.08548
-1.23484 0.0920372 2.68031
1.8297 1.14967 -1.00636
-2.12884 -2.33067 2.23364
-3.31964 0.130878 -1.56746
-0.0442162 -0.854877 -3.5029
1.28441 -2.26516 -1.62237
2.38639 1.9525 0.646969
0.17255 3.14981 -3.40773
-2.73882 -3.44728 -0.722713
-1.82058 3.501 -1.04923
-2.6758 0.54681 -3.49273
0.32156 2.31569 1.19248
-0.980335 0.609852 1.86553
0.455921 1.48473 -1.07094
1.48856 2.70063 1.0779
2.86991 -0.879124 2.81646
-0.0186577 3.40901 1.23342
0.577328 1.72805 0.847691
3.39015 -1.16675 0.404125
-0.194614 -0.370037 0.369595
-0.68362 2.34492 -2.15094
3.51258 2.67284 -3.37079
2.31076 -0.541134 1.24278
-2.29572 2.01406 -0.808025
1.7859 -0.597363 -1.64293
1.06682 -2.64434 0.481663
-1.23529 3.22929 0.355137
2.61612 0.143284 -0.984165
0.484707 -2.81492 1.38462
-3.21305 -2.96031 -2.52095
-1.82846 -0.151203 2.82769
-1.19553 2.70071 2.96499
-3.48829 -3.39331 -1.11168
-0.760777 2.45298 -2.16496
2.13182 3.16098 0.773212
-1.45386 0.879528 1.1326
2.90499 -0.589184 0.826351
-1.6147 1.17924 -3.09771
2.77363 1.25982 -2.3771
-3.28286 -1.791 -1.33369
-3.52252 -2.00033 2.05064
2.97801 0.706745 1.684
-2.20102 3.04675 1.29441
-1.36226 3.094 -0.319965
2.94649 -1.73413 -1.22634
0.0117378 3.40142 3.18872
-2.22926 -0.587978 -0.935993
-1.79144 -1.21852 -2.8241
0.366993 0.170498 1.97126
2.03702 -0.591404 3.18397
0.552128 -0.870541 -2.35189
-1.83122 -0.857525 1.89038
2.46691 -1.94687 0.869785
-1.38859 0.387653 -0.103565
0.920605 2.02912 2.69784
1.04198 2.44007 2.03191
3.10971 -1.61554 -2.0916
-3.24993 -0.309261 -0.3064
2.25686 1.90302 3.39963
1.37349 -1.26552 -0.727306
-3.51394 -2.76403 2.93769
1.38016 0.791813 -1.98719
-0.817402 2.96431 0.601482
2.61457 1.89569 -3.07821
1.24506 -2.56025 2.48644
0.741436 1.36407 0.859165
1.65355 -1.12948 -3.2919
-1.18838 -0.555309 -0.597446
-1.32428 -0.269703 -2.22996
1.95213 -1.08019 -0.491764
1.35428 -3.24224 -0.252079
2.90263 3.31861 -2.52761
-0.563236 2.16323 -3.09883
-0.105915 -2.1897 1.80057
-0.15501 3.42859 2.77585
-3.36319 1.6063 1.60439
-3.11956 -1.71962 3.47863
0.818523 3.46947 -0.612217
1.59228 -1.78626 3.1218
-1.43502 0.893177 -1.49392
1.84844 -0.690228 -1.73244
2.85636 -3.40329 -0.949368
3.29306 3.03487 -2.85348
2.02628 -0.595715 -2.03946
1.2666 2.8339 -2.67823
-1.19636 -1.38845 2.4636
-0.253269 -0.216114 -2.79155
2.13823 -0.331959 -2.38942
1.7245 3.49028 -0.640148
3.23429 2.54703 -3.28251
-1.56549 -2.42352 -0.969013
1.02067 2.96045 -0.836773
1.17091 2.74946 -0.337437
2.66698 1.97517 2.07057
3.52429 0.465916 1.36894
2.92054 -1.33484 -3.08686
-3.40654 1.00434 0.232555
-2.79224 -2.78447 3.43613
0.571331 3.35749 -2.68019
0.292545 1.54645 3.40238
-3.212 1.7134 -3.08849
-0.513241 -3.38763 2.87568
2.15304 0.636761 2.08961
0.688076 -1.72786 0.997433
-1.01033 -2.59642 -2.07219
-0.561665 -3.13948 0.128513
3.20642 3.3166 -1.40268
2.57521 -3.15728 -1.18343
2.89874 -2.9458 -1.36148
2.23377 1.16106 -2.88237
2.68081 -1.08193 2.36656
2.48915 -0.758396 2.51446
1.04322 1.73208 -0.384312
-1.49488 1.34959 0.891544
0.436657 -2.02968 1.83066
-2.97036 0.495518 1.6949
-1.36933 3.46939 1.94416
1.45096 2.60846 2.32241
-3.44605 2.64814 2.91214
-3.3247 2.01134 1.00585
2.57739 1.70958 3.45945
1.0245 0.32304 -1.36629
-3.42716 -0.723347 3.36951
0.99992 -2.74747 1.18357
-1.23677 -1.23863 3.1576
-2.0774 2.73356 0.117588
3.40229 -2.77234 0.519627
1.65735 -1.13794 -0.407444
0.50214 -3.22252 -1.82666
-2.02755 -2.66484 -2.88266
-2.10363 -2.45401 1.83063
-0.466198 -2.41216 -1.91368
0.367779 1.61606 1.89851
-2.516 2.72444 2.68657
-2.89393 0.188824 -2.08759
1.22738 3.48759 -2.42138
-1.78853 -2.65715 -2.18999
0.807743 -3.32221 0.2076
2.98481 1.87068 0.988804
-3.43339 -1.16272 1.85949
1.40096 1.34527 2.94101
3.02282 2.24537 3.53257
1.38579 -1.28818 2.6131
0.00501633 2.08332 1.80201
1.92115 2.57103 -2.07652
3.03531 -2.85843 -2.12446
-3.22203 1.37266 -1.7779
0.521099 3.11966 -1.56457
-2.55745 -0.139942 3.30983
2.83758 -0.69067 -0.920238
2.71125 -1.12034 -3.1105
2.70829 -3.25492 2.13858
1.78585 -2.76764 -2.68513
-0.479488 1.62188 2.40191
1.97953 -0.908642 2.4374
2.85878 -3.05484 2.58269
-1.98646 2.98418 0.419819
-0.0154991 3.29768 -0.527866
0.226978 -0.248569 2.86773
2.84227 1.72952 -0.890293
2.73549 0.499752 1.5249
1.33854 -0.324535 2.80552
2.65713 -0.151783 -3.49765
1.5235 -2.43328 1.12794
0.425373 1.09095 3.22302
-0.52747 -0.465054 -3.36736
2.89607 -1.67362 3.15236
-1.16733 -0.124546 2.38269
-1.36695 -3.20739 -0.401417
1.27829 0.555119 -2.73925
-0.732349 -0.669956 1.29604
-1.99418 -1.47 -1.56403
-2.48812 3.40408 1.28791
3.17536 1.99386 2.39016
2.86284 0.981831 -0.0544167
3.4992 -2.66014 2.48425
3.11602 0.816105 -1.7249
2.43136 0.17664 1.15427
-1.50559 3.01303 1.48241
-1.24112 -1.88946 -2.02982
-3.48061 2.39254 0.835758
-2.04092 -2.40715 2.90129
2.78252 -0.397617 3.23803
2.63715 0.649799 1.69635
-1.48462 -0.242191 -1.38916
-1.5359 0.0851173 -0.0455894
-0.257084 0.0487862 -3.29683
-3.17016 -0.902538 -0.116474
2.31597 -2.00671 -0.638981
-3.24939 -0.508579 0.475277
1.59009 1.78584 -1.19953
0.424038 2.30895 0.928852
-0.405285 -3.26751 3.53495
-1.77628 -3.02052 0.64922
-0.161724 2.62035 -2.12851
3.32822 -2.93161 0.960331
-3.50415 -1.46379 -3.05823
0.383099 1.28284 -0.95705
2.74784 2.64821 1.03996
0.68758 1.42865 -3.00415
2.49177 1.18298 2.7854
-0.646725 -0.762463 1.027
-0.647305 -2.87396 1.29503
-2.53362 -0.275524 1.27823
-1.65841 1.48373 -0.168766
2.30564 -1.21353 0.903339
2.78295 -1.42084 2.97508
-2.24145 -0.921268 1.72239
2.33404 2.46555 0.303249
3.33361 1.67785 -1.80364
2.05166 -1.1701 2.91488
-0.456867 -1.74568 -0.914936
-3.22918 1.14313 -0.785175
2.05277 -2.03971 2.47483
-1.65153 -1.56961 1.42303
2.25553 -0.224293 -3.32603
2.69507 -1.45418 -1.74315
0.350109 -2.73858 0.339298
-3.41399 -1.4445 -0.730686
-2.21391 -2.17781 -1.58837
-3.36638 -2.37973 0.245251
-0.745785 3.20746 2.03511
2.00457 -0.784939 0.110889
1.41206 -0.478588 1.0749
-1.23226 -1.96135 2.50901
-1.02275 0.390835 -1.25081
0.237812 -0.889172 0.298725
-2.49024 -2.26145 0.563862
0.31461 1.09238 2.6549
1.72996 1.21392 3.48081
-1.09214 2.53555 -2.43446
-3.12438 -3.36637 -2.76253
0.522045 -1.10843 -0.543751
-2.4704 -2.17121 2.98138
-3.49692 2.77639 -3.04732
-1.74401 -1.99141 0.347233
1.55843 -0.0104408 3.46178
-1.41324 3.23109 -2.86702
-1.8257 -2.79468 2.7609
-1.88042 1.52365 -0.0925255
0.220654 -0.81374 -0.624325
0.461842 1.62966 -0.986973
-3.14926 2.509 0.908314
3.36766 -0.50449 2.27264
3.32405 1.02883 0.981678
1.13575 1.06744 1.99399
0.530186 3.32714 -2.0838
1.1987 1.35004 -1.38824
-0.107746 -2.59874 -1.1792
-3.26762 -0.888897 3.34816
-0.356411 0.766216 -0.532925
1.66034 -3.08048 -2.97062
-0.966885 1.9169 3.07392
-1.22978 2.30317 -0.497921
2.75562 1.60348 -3.00463
2.21408 0.860188 1.06653
3.134 -2.07141 0.858143
-2.32159 1.99431 -0.327351
0.502926 0.657482 0.0776329
0.315556 -3.51761 2.72427
2.78635 -3.2497 -0.576862
-2.7198 -0.0705757 0.878193
-3.18142 -2.47759 -0.740444
-0.675617 1.09106 -2.50462
-0.144711 2.865 2.10258
-1.61371 1.55327 -0.572765
2.77996 0.231815 1.89136
-1.61473 0.83028 -0.181675
1.99843 1.51241 3.47953
0.655354 -1.5202 -2.57362
-2.45704 2.79908 -2.28778
1.95668 2.04989 1.64536
-2.85111 2.33381 2.7033
-1.82019 3.15612 -0.272984
3.28611 -1.05503 -0.943516
-1.35401 3.33579 -1.92578
-3.52999 -2.34527 1.30976
0.823864 -3.10084 -1.92731
0.767857 -0.711857 -2.95044
1.19796 -2.78077 -1.46692
3.44571 2.41011 -2.20337
1.02372 3.48861 -3.22083
0.191486 1.90976 2.64852
-3.14885 2.59418 2.2691
-1.08864 -3.29336 -1.32147
-0.0107002 3.52828 -2.05303
-1.23648 -1.36126 -0.862766
-0.160069 -0.887539 -0.959888
-0.106785 3.47186 1.33197
2.96183 0.172367 3.08673
-2.77707 -1.16521 1.96132
-2.46237 -1.25504 1.91439
-2.8812 2.7724 0.288609
2.92344 -1.10347 -1.18456
-2.46538 -0.716778 -0.942387
-0.982876 2.73011 -1.48146
1.15808 -0.81612 0.160999
-2.86916 0.951122 2.80899
1.99835 -1.74448 2.74532
1.54955 1.15245 -0.149662
-0.0246696 0.578754 2.22066
-1.64582 1.8054 -3.10173
1.64651 2.34675 3.2062
-3.07358 2.46927 -1.4328
-0.480434 2.85717 1.85415
1.04183 3.39551 1.04873
-1.33271 -0.654713 3.23632
-2.05925 -3.03217 1.65191
-2.38128 -2.89761 2.91115
1.0046 -3.4348 -0.00374222
-0.842091 1.65029 -1.96052
-0.408283 -0.909916 2.8486
-1.26943 0.447987 1.128
0.301495 -0.441036 1.06174
-1.37989 0.020916 -0.148434
3.20436 -3.52687 -0.820271
3.37334 1.0505 2.06055
1.48972 3.25332 3.0321
0.333523 -1.87327 -3.40104
-3.20575 -1.25083 3.23895
-2.16256 3.2893 2.3537
-3.38131 -1.62014 -2.09175
2.28223 1.50711 1.89177
-0.723377 3.24141 -2.0848
2.13191 0.00736618 1.93984
-2.2239 3.16301 1.94851
-3.23069 2.30002 -0.536533
2.80513 2.13783 0.181255
2.4078 -0.4398 1.3117
3.11122 3.42926 -3.47466
1.92939 -2.84385 2.81836
2.84136 -1.47087 -2.33731
0.665783 -0.316639 2.17353
2.58471 -2.10176 1.8794
0.98901 0.178585 -1.64877
-0.598019 -1.75686 -2.55311
1.86917 -0.977032 -2.78862
-2.01693 -0.672192 2.88474
2.83031 -1.93441 -0.0905952
2.89119 -2.06215 -0.728687
1.6422 -2.48646 -0.0369987
2.84043 2.44664 2.49585
0.946606 1.75247 -1.88813
-1.24134 -1.6491 -0.986172
1.11361 -2.59993 2.19613
2.09603 1.92462 -3.09626
2.84294 -2.74075 -0.537754
2.66033 -3.40712 2.79377
-1.49762 -2.42032 -2.67617
1.30923 -2.12555 -1.20279
-1.79512 -3.30171 -0.685528
-3.36661 2.87603 -2.30623
-2.25103 1.64911 2.98177
0.298336 -0.471638 -1.20286
-1.04107 1.82255 -0.799068
-1.1336 -0.599377 -1.9418
1.86418 -1.03888 -1.14701
1.12242 -2.26329 -1.55041
2.44996 -3.1385 0.0329857
-2.82017 -1.6324 1.44297
1.02983 -3.39051 1.14499
2.25914 -2.18191 0.485477
2.17356 -2.01299 -0.932766
-3.09665 -0.728481 2.13113
-0.360188 2.57357 -0.113667
0.701733 -2.53484 -3.24858
-3.51263 -0.132908 -1.28374
-2.05932 -2.33608 -0.0115013
1.5092 2.79006 0.853718
-0.583363 1.70449 2.75686
-1.97391 2.41985 2.37006
1.51529 -0.617664 -3.34739
-3.48483 -1.42588 -1.82484
1.65002 -3.31967 0.450397
-0.99918 -2.88079 -1.04338
-1.24404 -0.237255 -0.0426826
1.00776 -2.07106 2.82813
-3.07109 -2.57997 -2.04348
0.786343 -1.10376 -2.78896
0.475849 -2.13009 1.91925
-0.689625 0.822079 0.271748
0.498524 1.85189 -2.88145
1.6774 0.299824 -1.30361
-0.939548 0.350529 -1.08774
1.55261 -1.0668 -0.964809
-1.55742 1.46955 2.33347
-2.26483 3.22924 3.26613
-1.30459 0.169643 -2.84937
-1.08983 0.634083 0.582409
-2.70612 -1.64692 1.45604
1.56935 2.36446 -1.25742
1.69162 -2.39251 -2.47288
-3.14753 1.10973 0.830662
-0.699734 -0.280216 -2.88616
1.87099 1.78395 -0.417423
0.137112 -0.198971 -3.01522
0.335896 1.24733 -3.32151
0.490246 2.98622 0.383663
-2.99469 -1.85391 -2.0496
1.99688 1.05998 -0.160992
-2.32789 1.88939 -1.86388
-1.26524 -0.608608 -0.72086
2.56914 -2.45253 -2.67848
3.21852 -2.06452 0.576839
0.26556 0.239468 -1.17474
0.254063 -1.42508 1.63001
1.46808 2.71576 -0.190014
-2.2156 -0.483883 -0.73933
-0.729671 -3.52917 0.41048
2.11306 -1.98833 -2.06507
3.2529 -3.52699 -3.24303
-0.535313 -2.31935 -0.316105
0.321743 -0.580868 1.7669
-3.16877 -1.54726 3.23792
-1.33979 -0.864277 0.410038
-3.24531 2.405 2.5205
-0.431606 -0.876469 1.1689
2.3646 -3.47573 -2.85051
-0.292271 -1.68762 -2.37597
1.17819 0.58643 -0.828762
0.938877 0.163952 -1.35203
-1.91276 -0.118687 0.33234
2.85786 2.88153 2.75519
2.02843 -0.864071 -1.85942
-1.09706 -0.497303 0.280025
-1.64392 1.69844 -1.38232
3.06052 2.45685 1.27674
-2.32553 -1.51029 1.80473
-1.69777 -2.21304 -3.41842
0.477184 1.03022 0.703541
2.66069 -1.85894 -3.19986
-1.07432 -3.45559 0.685177
-1.38648 -2.36464 -0.500637
0.289639 -3.04231 3.17083
-3.49768 1.98984 -1.39383
-1.34447 -1.64276 -2.23092
2.93599 0.248859 3.22966
1.20519 -0.226154 -2.34798
0.790485 0.452038 -1.02549
-1.57332 2.2898 3.00846
-1.23764 -0.768551 -1.91783
2.98307 -1.17521 -2.3697
-0.584919 0.754185 -1.73062
-0.949627 2.90324 -1.76921
1.19208 -0.87447 -3.3149
1.96489 -0.83662 -1.42212
1.12719 1.35444 2.36227
3.31475 1.22309 -0.931232
-1.24627 -1.10726 3.05634
-1.30516 -3.38412 2.27879
0.312542 -1.42191 -2.0253
0.94656 0.344166 -0.196789
2.75148 0.791698 -1.97814
-2.55326 3.2105 -2.61043
-2.33263 -1.27466 0.518818
0.780781 2.92114 3.21773
-0.924297 1.81868 1.50483
1.14819 -0.589664 -0.807621
1.13718 -0.810452 1.08884
-0.119564 1.94699 0.708439
1.39067 -2.8937 2.82206
-1.34165 0.422558 0.630695
-0.316067 -2.16642 -2.64495
0.0772209 -2.95047 -2.96999
-2.9395 -2.50002 -1.24093
-2.2573 -1.29712 -1.85533
2.25125 2.48738 2.96707
-2.62372 -1.50426 -0.158131
1.46884 3.17946 2.56695
-0.358257 0.781109 0.978413
-1.07173 -2.87399 1.08843
2.56269 2.5204 -2.55636
2.92145 -2.88859 -1.18724
3.487 0.330875 -1.134
-1.82129 -3.12744 -0.098484
0.858921 -2.06321 2.60812
0.290455 -1.31679 1.55997
3.13604 -2.60108 -3.47982
2.63565 -2.22108 -3.36771
-0.453289 2.78329 0.948933
-1.90039 -1.1105 2.07866
-0.921223 1.82149 1.06353
1.89525 0.848644 1.17866
-3.3061 1.23456 -2.55781
1.13095 0.654209 -2.68153
0.203541 3.36846 -1.20921
-2.30384 0.16003 1.00953
-1.77994 3.4542 1.41217
-1.61212 -3.01635 2.72663
2.34053 2.62301 2.97438
0.883663 -1.36581 -1.67165
-2.12015 0.269329 3.15356
2.06223 3.35183 0.934856
3.03995 1.17973 -1.36612
-2.17711 1.40917 2.29181
0.149212 -1.52723 1.59292
-1.37679 2.21185 -1.78258
3.0391 -3.15934 -1.39573
3.2302 -1.40374 -1.40836
2.66905 0.519672 -2.32088
-3.06995 -0.675327 -0.151157
-2.45192 -2.85901 -2.94918
2.01847 -1.97544 3.40637
-3.415 -2.44875 1.05056
1.88054 -2.94433 -1.0758
0.937923 -1.58591 1.93251
2.15906 2.56702 0.0770073
-3.30401 -2.87712 -0.0786095
-1.17684 -3.37355 2.05318
-0.493999 3.39219 -1.4945
3.35856 1.99389 1.8339
-3.12615 2.92765 2.51042
3.28394 3.47945 -3.00056
0.798969 1.96238 -2.44559
2.72689 1.55111 -0.854389
0.592045 -0.635708 0.563419
-2.3983 3.30593 -0.405094
1.05863 2.92946 0.253323
0.0444603 2.62917 0.883495
2.0855 -1.61502 0.740147
-0.147953 1.42652 -0.333317
-1.70488 0.717731 -0.941196
-0.701725 1.12712 -0.99728
0.388218 0.875523 -3.10225
3.06936 -2.39286 1.45258
1.09725 -2.73332 -2.71866
-3.37519 1.39426 -1.94826
1.41366 2.5315 -3.08615
-1.23838 0.522778 3.07856
2.50549 -2.9683 -2.60381
-1.89518 2.12092 2.82643
0.699162 -0.562565 0.00862503
3.23742 1.26809 -1.93161
3.13889 -3.50099 2.47945
1.05593 1.42276 -2.98075
